//X Y Z Nx Ny Nz
203
0.05184490 0.38946468 1.95598924 0.024597 0.195606 0.980374
-0.27340722 -0.06317713 1.97877777 -0.137216 -0.032886 0.989995
-0.31999770 -0.08597299 1.96890175 -0.161422 -0.042968 0.985950
-0.02075787 -0.40753275 1.95320940 -0.010477 -0.203711 0.978975
0.73422843 0.09146058 1.85424173 0.365794 0.045888 0.929564
0.29303014 0.50148922 1.91026986 0.146924 0.250167 0.956990
-0.51205885 0.42642191 1.87959599 -0.255388 0.213974 0.942864
0.62007129 -0.03945652 1.89531696 0.310923 -0.018730 0.950251
0.70833004 0.70144200 1.73328340 0.355271 0.352195 0.865876
0.60420537 0.65380132 1.78424418 0.303002 0.329869 0.894079
0.37447140 0.72854871 1.81912053 0.187535 0.365048 0.911905
-0.81033063 0.39292473 1.77802610 -0.407229 0.197046 0.891817
-0.89992249 0.15647829 1.77124441 -0.453104 0.076210 0.888194
-0.80657077 -0.14909798 1.81775951 -0.403615 -0.074744 0.911871
-0.78268468 -0.30742002 1.80700612 -0.392945 -0.154625 0.906469
-0.72390920 -0.57979661 1.76396966 -0.365004 -0.289900 0.884721
-0.60315663 -0.61403763 1.80025315 -0.302576 -0.308480 0.901825
-0.30453348 -0.72985804 1.83183134 -0.152776 -0.365822 0.918060
-0.32658017 -0.90276456 1.74817765 -0.161868 -0.453523 0.876422
0.06107755 -0.95850527 1.74854827 0.031150 -0.480801 0.876276
0.77244860 -0.46761391 1.77878404 0.388593 -0.234929 0.890957
0.95512807 0.62561035 1.63287544 0.481054 0.313868 0.818580
0.66614294 0.99188793 1.59659147 0.333536 0.499506 0.799529
-0.37384018 0.95590299 1.70862663 -0.186219 0.481191 0.856608
-0.40013039 1.07911122 1.62513149 -0.199579 0.543892 0.815076
0.63378584 -0.93054467 1.64266539 0.319323 -0.470333 0.822690
1.24494028 0.37321874 1.51073098 0.623721 0.188495 0.758579
-0.61408544 1.11542070 1.53504241 -0.308332 0.560749 0.768434
0.47990358 -1.23993218 1.47871089 0.240491 -0.624020 0.743480
0.95833558 -0.86624134 1.51547766 0.480199 -0.434310 0.762091
1.50607920 0.01910003 1.30659342 0.754002 0.009720 0.656801
1.31644201 0.52515525 1.39686155 0.662440 0.265294 0.700566
0.83758748 1.26906812 1.28241479 0.420489 0.636551 0.646523
0.71190846 1.26396477 1.37042630 0.355585 0.634154 0.686591
0.08373348 1.54870522 1.24828494 0.040911 0.777316 0.627778
-0.18082684 1.52246296 1.26363289 -0.091840 0.765333 0.637049
-0.64040005 1.28676152 1.37767613 -0.322341 0.646302 0.691657
-1.08460641 0.95012951 1.37193120 -0.543619 0.476712 0.690814
-1.34385872 0.70637202 1.28796971 -0.675614 0.354983 0.646168
-1.36030245 -0.65747976 1.29201615 -0.683626 -0.329635 0.651150
-0.84684116 -1.16462898 1.37123144 -0.426628 -0.585992 0.688914
-0.55543762 -1.36430657 1.33267355 -0.279542 -0.685276 0.672497
-0.18737514 -1.54462242 1.23738182 -0.094747 -0.776929 0.622418
0.14378670 -1.50997913 1.28342843 0.073763 -0.759328 0.646514
1.37943625 -0.48862237 1.34600461 0.693438 -0.244836 0.677642
1.51856399 -0.29940617 1.25027776 0.763690 -0.149123 0.628124
-1.61798632 0.24453969 1.12252748 -0.815525 0.121961 0.565725
-1.62393868 -0.38783172 1.08538604 -0.815237 -0.195839 0.545010
-0.05674288 -1.67383540 1.07594538 -0.026145 -0.840757 0.540781
1.13333035 -1.20883238 1.10306060 0.569072 -0.606223 0.555563
1.50795960 -0.80352819 1.02500236 0.757472 -0.400822 0.515343
1.78688025 0.02522282 0.88208318 0.896697 0.014527 0.442406
0.90691477 1.60653162 0.76669288 0.454206 0.804088 0.383587
-0.72012228 1.61536252 0.89620858 -0.360762 0.815290 0.452939
-1.42040074 1.13964593 0.78847700 -0.716000 0.574446 0.396681
-1.55837297 -0.83055782 0.91745853 -0.782950 -0.416601 0.461989
-1.06298733 -1.44033682 0.85157520 -0.536339 -0.727771 0.427421
0.09438252 -1.82336462 0.78963703 0.049255 -0.917201 0.395368
1.43596971 -0.95421100 0.99409872 0.721653 -0.479443 0.499351
1.83421433 0.29190081 0.69205892 0.925929 0.145761 0.348438
1.36354125 1.32499242 0.59771562 0.684577 0.665248 0.297992
-1.01086128 1.59183216 0.62777245 -0.509032 0.800814 0.315568
-1.85235655 0.23756132 0.65968847 -0.935944 0.117840 0.331847
-1.48305321 -1.15694118 0.61996496 -0.750588 -0.583433 0.310200
-0.13768822 -1.85914397 0.67842776 -0.067079 -0.937792 0.340657
0.96248847 -1.66961658 0.53092420 0.480661 -0.836133 0.264286
1.47033644 -1.15548158 0.65258259 0.742440 -0.583923 0.328356
1.70272040 -0.82699907 0.59411144 0.858531 -0.416211 0.299488
1.40955305 1.38750625 0.27622330 0.704956 0.695937 0.136782
-0.08455870 1.96430159 0.29853520 -0.042654 0.987960 0.148713
-0.97757292 1.67197943 0.48592257 -0.488605 0.837828 0.243537
-1.30399752 1.46135771 0.32559973 -0.655416 0.737533 0.162713
-1.75490856 0.86517310 0.32957977 -0.885022 0.434518 0.167122
-1.94795871 0.25128579 0.27034643 -0.982930 0.125144 0.134864
-1.56478584 -1.17064548 0.32116002 -0.791508 -0.589485 0.161317
-1.15100670 -1.56022716 0.40012100 -0.580658 -0.789021 0.200702
-0.61413026 -1.82987809 0.46551135 -0.307514 -0.922541 0.233138
0.11424381 -1.96623898 0.26914772 0.058861 -0.989091 0.135033
0.57162386 -1.84838331 0.46130201 0.287250 -0.929671 0.230649
1.24916673 -1.45861769 0.50587726 0.629815 -0.733995 0.254136
1.96125495 0.17948918 0.23060861 0.989214 0.089929 0.115622
1.63271797 1.11072636 0.17543329 0.824165 0.559512 0.087738
0.37984684 1.93318188 0.25647670 0.190629 0.973346 0.127507
-1.62675524 -1.11328435 0.22426656 -0.820240 -0.560910 0.112182
-1.44363379 -1.35522079 0.19346459 -0.725533 -0.681561 0.095272
-1.04539001 -1.67739689 0.24203561 -0.522907 -0.843351 0.123808
-1.15406144 -1.60756397 0.07656477 -0.580823 -0.813152 0.037788
0.48153740 -1.91980219 0.25635201 0.240218 -0.962170 0.128549
0.17143109 -1.97183871 0.08531608 0.086692 -0.995315 0.042797
0.96734786 -1.72847795 0.24308608 0.481997 -0.867595 0.122298
1.25096810 -1.52934718 0.12365989 0.632034 -0.772486 0.061627
1.85453928 -0.69110036 0.07765431 0.936044 -0.349887 0.037442
1.84687960 0.71200049 -0.06347306 0.932123 0.360697 -0.032320
1.71353459 1.00807774 -0.15038650 0.859603 0.505070 -0.077378
1.19019866 1.57890320 -0.08794042 0.602279 0.796927 -0.046546
0.25716969 1.96225941 -0.05925054 0.129376 0.991130 -0.030375
-1.90296257 0.55429006 -0.19488098 -0.955902 0.277016 -0.097541
-1.97083950 0.21046504 -0.02215736 -0.994357 0.105413 -0.011954
-1.95161939 -0.35466018 -0.02576476 -0.983446 -0.180586 -0.014953
-1.41531491 -1.40547001 -0.06846301 -0.708077 -0.705251 -0.035333
-1.27714086 -1.51511395 -0.05224419 -0.643950 -0.764603 -0.026656
0.46994108 -1.92888451 -0.14107609 0.235753 -0.969208 -0.071100
0.76416945 -1.82366669 -0.08627569 0.387156 -0.920982 -0.043605
1.83054757 -0.76057053 -0.00964144 0.923324 -0.383969 -0.006421
1.84918869 -0.69646668 -0.12212263 0.934044 -0.351749 -0.061918
1.89761972 0.32964039 -0.47155717 0.957083 0.165930 -0.237611
1.83202899 0.70212877 -0.28467566 0.924093 0.354352 -0.143130
1.63792789 1.04480314 -0.41537702 0.824562 0.525830 -0.208808
0.21928677 1.90411007 -0.51196730 0.110111 0.959907 -0.257789
-0.59516281 1.86516440 -0.33700988 -0.298437 0.939319 -0.169160
-0.67799830 1.80860102 -0.44125402 -0.341766 0.912818 -0.223518
-1.12005270 1.61298990 -0.28341389 -0.563567 0.813380 -0.144237
-1.87635970 0.57342112 -0.32675290 -0.943568 0.287291 -0.164750
-1.82362342 -0.65185767 -0.42160308 -0.920802 -0.326920 -0.212712
-1.38845670 -1.37483037 -0.40021968 -0.695922 -0.689722 -0.199942
-1.14176130 -1.58384192 -0.33366200 -0.574450 -0.800612 -0.170375
-0.96981013 -1.71590734 -0.30924475 -0.485100 -0.860283 -0.156815
-0.45987338 -1.91443408 -0.30082908 -0.229561 -0.961533 -0.150854
1.32668531 -1.41508031 -0.44173279 0.667485 -0.711254 -0.220411
1.87973893 -0.50934881 -0.43525231 0.942304 -0.255236 -0.216606
1.95770454 -0.03732494 -0.36296308 0.983257 -0.017331 -0.181400
1.82079208 0.59254360 -0.53658086 0.916584 0.296840 -0.267880
1.55817771 1.07575035 -0.58973318 0.786334 0.541696 -0.297059
1.52702975 1.02813697 -0.74928296 0.767531 0.517637 -0.378086
1.11440480 1.52014720 -0.60946345 0.561300 0.769189 -0.305437
0.05932833 1.86516023 -0.69109505 0.029489 0.937233 -0.347456
-1.85678399 0.17365284 -0.67143154 -0.936862 0.086377 -0.338865
-1.82934988 -0.53692579 -0.57633066 -0.918341 -0.269592 -0.289775
-0.38764945 -1.86196566 -0.57317132 -0.195333 -0.937876 -0.286765
0.28134948 -1.87738776 -0.56896627 0.141144 -0.947681 -0.286321
0.58571172 -1.79851842 -0.60549366 0.295098 -0.905847 -0.303906
0.75713986 -1.69715488 -0.68882477 0.382295 -0.855907 -0.348244
1.32426298 -1.32866025 -0.68125993 0.663205 -0.666464 -0.340565
1.50682330 -1.09052348 -0.68406945 0.760577 -0.550651 -0.343955
1.74429309 -0.75167108 -0.56564164 0.880973 -0.377990 -0.284622
1.84333026 -0.20981936 -0.69703841 0.930608 -0.104304 -0.350841
1.58548725 0.77756536 -0.90770042 0.798624 0.390474 -0.457963
0.81624007 1.63199639 -0.78954577 0.408225 0.821215 -0.398695
0.70402122 1.61475086 -0.90996689 0.354183 0.814780 -0.459008
-1.09018266 1.42801571 -0.83770710 -0.549769 0.721469 -0.420994
-0.90293700 1.47454715 -0.99534261 -0.451164 0.738720 -0.500743
-1.52524972 0.97721106 -0.82059169 -0.767656 0.490583 -0.412350
-1.53624070 0.80938423 -0.97585261 -0.771039 0.405896 -0.490661
-1.76809382 0.17467603 -0.88027954 -0.891818 0.087651 -0.443822
-1.08608377 -1.46027720 -0.79046160 -0.546314 -0.736621 -0.398661
-0.62458390 -1.64391589 -0.91703206 -0.314961 -0.828927 -0.462256
1.20018756 -1.34164536 -0.84088838 0.603804 -0.676993 -0.420833
1.63160241 0.45355859 -1.05473435 0.816831 0.226128 -0.530710
0.79500258 1.52275908 -1.00928760 0.399176 0.764137 -0.506709
0.74281013 1.39842165 -1.21284032 0.372432 0.700566 -0.608688
0.29911137 1.65031636 -1.06338990 0.149692 0.831460 -0.535039
-0.02579087 1.71443141 -1.02128780 -0.014873 0.858589 -0.512449
-0.54449475 1.60253823 -1.04273677 -0.273948 0.806190 -0.524415
-1.22142148 1.00637555 -1.20464766 -0.612279 0.504329 -0.608906
-1.59137785 0.39066845 -1.13355780 -0.798218 0.196884 -0.569284
-0.74544263 -1.50409281 -1.06394899 -0.373008 -0.757418 -0.535894
-0.08787862 -1.59857142 -1.18245125 -0.043583 -0.802769 -0.594696
0.68096322 -1.54156327 -1.04893970 0.342437 -0.776512 -0.528929
1.55391717 -0.56971484 -1.09597552 0.781840 -0.287045 -0.553473
1.66318822 -0.18092638 -1.06741190 0.838440 -0.090294 -0.537462
1.65198720 -0.03062724 -1.11378908 0.828358 -0.015061 -0.559997
1.51393270 0.24867697 -1.26317406 0.762432 0.126329 -0.634617
1.43689692 0.19888034 -1.35849202 0.722319 0.101507 -0.684070
1.36463034 0.51049823 -1.35210884 0.686825 0.255378 -0.680480
0.63888758 1.26945817 -1.39672780 0.322169 0.636243 -0.701001
-1.12509203 1.02762341 -1.28073263 -0.564691 0.514122 -0.645602
-1.37487733 0.56665117 -1.31650579 -0.693267 0.286593 -0.661245
-1.48561108 -0.15664731 -1.30928433 -0.747024 -0.079779 -0.659992
-1.18154919 -0.82968271 -1.36780596 -0.592802 -0.416788 -0.689111
0.09005043 -1.52061605 -1.27936637 0.046818 -0.764697 -0.642686
0.76801455 -1.21991539 -1.37597561 0.384355 -0.611999 -0.691179
1.46708381 -0.38183987 -1.29660463 0.734209 -0.192403 -0.651091
1.16129243 0.59820938 -1.50292945 0.584442 0.299426 -0.754170
1.20661676 0.71345693 -1.42351580 0.603907 0.358416 -0.711923
1.03140402 0.75448269 -1.52438092 0.518928 0.379029 -0.766192
-1.22718489 0.57605624 -1.45658016 -0.616624 0.289893 -0.731941
-1.22763729 0.04145795 -1.57305002 -0.615537 0.020842 -0.787832
-1.23998725 -0.00322314 -1.56663370 -0.619817 -0.004123 -0.784735
-1.21613801 -0.37841576 -1.53250933 -0.611443 -0.191555 -0.767752
-1.17778552 -0.69291955 -1.45480704 -0.591244 -0.346928 -0.728060
0.71027261 -1.14210057 -1.47050488 0.356308 -0.574322 -0.737020
1.09382033 -0.64896530 -1.53739834 0.550441 -0.325771 -0.768692
1.03574491 0.25356102 -1.68586183 0.520595 0.126868 -0.844326
0.52245259 1.08562398 -1.58952856 0.261202 0.545865 -0.796119
0.19345164 0.98092133 -1.72778141 0.095155 0.492817 -0.864915
-0.98220164 0.53068888 -1.65179956 -0.493861 0.264734 -0.828262
-0.99004591 0.12093183 -1.72806382 -0.496299 0.059778 -0.866091
0.41558456 -1.11429858 -1.59923661 0.207086 -0.559898 -0.802265
0.89364666 -0.68763256 -1.64030218 0.450272 -0.345998 -0.823128
0.29493043 0.84624511 -1.78017497 0.147603 0.425614 -0.892786
-0.56001431 0.70489776 -1.77746189 -0.282279 0.353968 -0.891642
0.39785331 -0.87201720 -1.74874067 0.199463 -0.438818 -0.876158
0.48277116 -0.81229061 -1.75847220 0.240709 -0.408158 -0.880605
0.61680412 -0.64117807 -1.78541076 0.309011 -0.323939 -0.894190
0.57290518 -0.54043072 -1.83547807 0.287130 -0.269816 -0.919106
0.72509104 -0.43094456 -1.80857551 0.363872 -0.216004 -0.906057
-0.22264144 -0.53737825 -1.90841067 -0.110987 -0.267674 -0.957096
0.63218272 -0.29594928 -1.86881685 0.315974 -0.149096 -0.936980
0.25103125 0.24561982 -1.96486092 0.126486 0.124076 -0.984178
0.14297779 0.23935243 -1.97925603 0.072627 0.118740 -0.990266
-0.38967159 0.19653989 -1.94749820 -0.194696 0.097968 -0.975959
-0.40266919 0.09410693 -1.95225596 -0.202345 0.046695 -0.978200
-0.13702725 -0.38315096 -1.95327604 -0.068970 -0.192390 -0.978892
