//X Y Z Nx Ny Nz
194
-0.03687026 -0.19391091 1.98697233 -0.018449 -0.096585 0.995154
0.28953522 0.23757543 1.95971477 0.144820 0.120480 0.982096
0.17877617 0.42056787 1.94313514 0.090757 0.210108 0.973457
-0.36892986 0.01126381 1.96113658 -0.184218 0.003433 0.982879
-0.04723030 -0.41614714 1.95080256 -0.022408 -0.208752 0.977712
0.10797664 -0.26405358 1.97758198 0.054028 -0.132197 0.989750
0.61944073 0.30262482 1.87197268 0.310111 0.151640 0.938529
-0.25098610 0.60162282 1.88437486 -0.127328 0.301565 0.944905
-0.30110392 0.44840559 1.92300618 -0.150274 0.223451 0.963061
-0.40758809 0.62423557 1.85305083 -0.204570 0.314615 0.926914
-0.68317401 -0.25252479 1.85837686 -0.343028 -0.127098 0.930687
-0.40491796 -0.36973017 1.92051506 -0.204346 -0.185889 0.961087
0.04832933 -0.59193963 1.90446985 0.023661 -0.295141 0.955161
0.11358105 -0.73467827 1.85310042 0.056816 -0.366002 0.928878
0.72246522 -0.05794119 1.85973275 0.359884 -0.027088 0.932604
-0.14437836 0.96996033 1.73749113 -0.071238 0.487490 0.870218
0.45927644 -0.87777138 1.73440468 0.229486 -0.439473 0.868447
0.66416943 -0.63770854 1.77000821 0.332743 -0.320698 0.886812
1.08843076 0.30621809 1.64354944 0.546420 0.153355 0.823352
0.96882546 0.64608979 1.61714959 0.486998 0.325194 0.810606
0.46675265 1.06961691 1.61386061 0.232935 0.538373 0.809874
-0.79462433 0.82853842 1.63121819 -0.399729 0.415654 0.816975
-0.89237922 0.49242872 1.71759439 -0.447235 0.247116 0.859601
-0.15768358 -1.08875871 1.65887308 -0.078294 -0.548060 0.832767
-0.77498186 1.12421513 1.44821167 -0.389590 0.563838 0.728222
-1.22925365 0.26729518 1.54555821 -0.615711 0.132684 0.776720
-1.34724557 0.16029550 1.45443583 -0.678221 0.079876 0.730504
-0.97269219 -1.01381981 1.41921997 -0.484976 -0.508309 0.711632
-0.14069381 -1.36723173 1.43917155 -0.070797 -0.686299 0.723865
0.69644016 -1.13855994 1.48043799 0.349570 -0.570694 0.743040
1.14113426 -0.80566543 1.41981626 0.572072 -0.403913 0.713854
1.23800266 -0.17398283 1.54865897 0.623281 -0.085719 0.777286
1.24261415 0.76708508 1.35591507 0.622323 0.384619 0.681749
0.18923284 1.49162483 1.29753506 0.095096 0.750524 0.653965
-0.22103666 1.45144069 1.33858180 -0.111102 0.730311 0.674019
-0.91902661 1.10971355 1.37079883 -0.462834 0.556403 0.690073
-1.20986557 0.86844361 1.31483030 -0.609218 0.435633 0.662629
-0.08237162 -1.51321566 1.28895760 -0.041017 -0.759515 0.649195
0.58139646 -1.44889832 1.23136330 0.292928 -0.728319 0.619471
0.82541299 -1.24956560 1.30873382 0.414001 -0.626821 0.660074
1.52262497 -0.16489191 1.26584041 0.766899 -0.082634 0.636425
1.50886834 0.47949862 1.21091628 0.757590 0.239982 0.607013
1.34847212 0.96790469 1.08784640 0.679130 0.487967 0.548334
0.42465889 1.64358020 1.04873443 0.212253 0.823052 0.526815
-1.59534252 0.02130005 1.20040154 -0.799137 0.009628 0.601072
-1.59672904 -0.52914280 1.05970669 -0.803122 -0.264576 0.533849
-1.40881181 -0.77817434 1.17792130 -0.706140 -0.390105 0.590919
-1.20168948 -1.24171519 1.00086319 -0.600861 -0.621058 0.503242
0.46526122 -1.56716132 1.13784468 0.234528 -0.787454 0.570011
0.67300290 -1.52036011 1.08310843 0.337173 -0.766301 0.546897
1.28694379 -0.93880576 1.18827176 0.646502 -0.471863 0.599484
1.38850617 -0.88344324 1.11751723 0.696622 -0.443909 0.563615
1.59190083 -0.59660292 1.02747059 0.801939 -0.298948 0.517227
1.62260485 -0.43223047 1.07863438 0.813130 -0.215916 0.540555
1.71603656 0.57136846 0.82240403 0.863996 0.285960 0.414412
0.99444330 1.52037847 0.80704021 0.500521 0.764640 0.405960
-0.16771445 1.75425148 0.91020763 -0.085196 0.884082 0.459499
-0.17580786 1.80013239 0.81500983 -0.089238 0.907485 0.410496
-1.14764655 1.29419124 0.98330843 -0.576131 0.650037 0.495506
-1.12376702 1.36525011 0.89773750 -0.565841 0.689358 0.452339
-1.31845987 1.26882744 0.79304695 -0.660840 0.637652 0.395841
-1.73988187 -0.01777091 0.97937596 -0.871072 -0.009366 0.491065
-1.73615360 -0.33042550 0.90346843 -0.875324 -0.165128 0.454467
-1.12383342 -1.39223158 0.85387373 -0.566534 -0.702767 0.430300
-0.20782147 -1.78325391 0.84068936 -0.104543 -0.899069 0.425141
0.25121376 -1.71908641 0.95922393 0.128281 -0.866254 0.482854
0.35233581 -1.74229646 0.88516265 0.177164 -0.877034 0.446570
0.85647893 -1.55168700 0.90980387 0.428012 -0.779536 0.457306
1.63501549 -0.68063611 0.88997817 0.825037 -0.342319 0.449590
1.68903542 -0.51990062 0.91370946 0.847614 -0.262101 0.461360
1.54394352 1.06194282 0.64826328 0.779222 0.536015 0.324809
1.29530978 1.34830451 0.68732440 0.650743 0.676838 0.344127
0.84700400 1.64736652 0.72331852 0.424612 0.828704 0.364630
-0.18882191 1.88939583 0.56947720 -0.095156 0.952868 0.288076
-1.31751239 1.30258095 0.74675864 -0.659294 0.652718 0.373216
-1.41739070 -1.16806853 0.75462425 -0.713722 -0.589026 0.379011
-1.05399346 -1.56057203 0.62344325 -0.531359 -0.786666 0.314347
1.22818351 -1.39447331 0.69991010 0.618388 -0.703232 0.350800
1.88814616 -0.06414498 0.62151265 0.949714 -0.031531 0.311526
1.93977404 0.25236225 0.31078073 0.979395 0.127210 0.156851
1.45424771 1.30032885 0.36552703 0.732531 0.655745 0.182749
1.04522920 1.67062426 0.28252748 0.524717 0.839253 0.142570
0.91375065 1.74487245 0.28233185 0.458152 0.877282 0.143082
0.04785035 1.94406188 0.42458308 0.022490 0.976521 0.214243
-1.74243975 0.89727116 0.32570723 -0.877832 0.449834 0.164502
-1.87358415 0.58593774 0.31546697 -0.942608 0.293286 0.159602
-1.90077853 0.24921945 0.50890398 -0.958253 0.124194 0.257539
-1.71867311 -0.91470081 0.40322572 -0.864887 -0.459983 0.200963
-1.56347644 -1.17031038 0.32746246 -0.789988 -0.590603 0.164644
-0.90946424 -1.71533132 0.42904270 -0.457678 -0.862835 0.214583
0.87694240 -1.71348393 0.50080502 0.440875 -0.862055 0.249981
1.25930882 -1.48343921 0.37471649 0.635109 -0.748906 0.189149
1.69905496 -0.99221772 0.33179411 0.851857 -0.496300 0.167409
1.83692944 -0.58822739 0.48274094 0.924268 -0.295709 0.241424
1.99498963 0.01295283 0.05042557 0.999658 0.007047 0.025168
1.90443540 0.56445867 0.11405943 0.956789 0.285136 0.057027
0.51633584 1.92201781 0.14748012 0.259432 0.963064 0.072135
0.29167998 1.94538212 0.24743035 0.145472 0.981628 0.123468
0.13269834 1.97771513 0.07345968 0.065480 0.997225 0.035423
-0.06954011 1.98192060 0.13615876 -0.035494 0.997070 0.067762
-1.77647638 0.87125427 0.12657315 -0.896642 0.438085 0.064143
-1.96920931 0.23124993 0.00527906 -0.993231 0.116148 0.001085
-1.89922655 -0.56164539 0.20468277 -0.954250 -0.280662 0.103127
-1.02980137 -1.69599545 0.16100845 -0.516145 -0.852700 0.080603
0.47251910 -1.92542291 0.18871035 0.236963 -0.966859 0.095039
1.63921082 -1.10845470 0.11744515 0.828261 -0.557348 0.057851
1.96159315 -0.20490000 0.17440915 0.990946 -0.102671 0.086520
1.99488080 -0.02387710 0.03014451 0.999827 -0.011009 0.015012
1.97798455 0.11290298 -0.10911042 0.996812 0.057488 -0.055318
1.88125801 0.59587657 -0.25855854 0.945340 0.299022 -0.130068
1.49516857 1.29709435 -0.10882613 0.754322 0.654127 -0.055823
0.89667749 1.77292347 -0.02736784 0.451931 0.891934 -0.014578
0.50891030 1.92235458 -0.16242960 0.255125 0.963382 -0.082503
0.22109178 1.95873308 -0.18551952 0.110706 0.989361 -0.094391
-0.25917643 1.95751452 -0.12761466 -0.131039 0.989171 -0.066099
-0.27862978 1.94714284 -0.24677898 -0.140007 0.982486 -0.122963
-0.82520372 1.79617560 -0.11769404 -0.417512 0.906635 -0.060803
-1.11665761 1.64111078 -0.01740310 -0.561910 0.827143 -0.009570
-1.46408904 1.33442831 -0.13851738 -0.737759 0.671347 -0.070744
-1.49277234 1.28471947 -0.25400689 -0.753028 0.645666 -0.126747
-1.74151731 0.94155991 -0.20956261 -0.875021 0.472256 -0.106364
-1.81265616 0.77128994 -0.20088176 -0.915674 0.388509 -0.102962
-1.96038294 -0.26806560 -0.06599561 -0.989919 -0.137205 -0.035152
-1.62224352 -1.12603831 -0.15986919 -0.819642 -0.567003 -0.081821
-0.31672236 -1.95113039 -0.10942885 -0.160538 -0.985492 -0.055075
0.15194607 -1.96783209 -0.18558428 0.078441 -0.992443 -0.094356
1.91198635 0.43084502 -0.33234775 0.961943 0.216536 -0.166667
1.77502728 0.79641920 -0.36874467 0.896696 0.401268 -0.186872
-0.64692372 1.85885894 -0.26610759 -0.325572 0.935850 -0.134860
-1.19699430 1.53132355 -0.37443963 -0.605064 0.773562 -0.188412
-1.26106381 1.47705650 -0.39497578 -0.636895 0.744843 -0.198933
-1.95884097 -0.15010944 -0.28260228 -0.986863 -0.076455 -0.142325
-0.67914414 -1.83380163 -0.32097170 -0.342124 -0.925830 -0.160589
0.53282523 -1.89049852 -0.33929104 0.266646 -0.948828 -0.169192
1.09703386 -1.59431648 -0.42959094 0.552444 -0.804814 -0.216977
1.06261659 -1.60165453 -0.50631177 0.534694 -0.805939 -0.254097
1.90859020 -0.52397043 -0.27171919 0.955177 -0.262905 -0.136076
1.96670842 -0.09424350 -0.28002539 0.988851 -0.047088 -0.141264
1.92912006 -0.17858599 -0.41317168 0.974306 -0.088122 -0.207273
1.05139983 1.57060242 -0.60449016 0.528924 0.792592 -0.303377
0.65708017 1.79083204 -0.54544264 0.331254 0.902483 -0.275309
0.44904828 1.85864604 -0.55913812 0.223279 0.933839 -0.279449
-1.63282490 0.91247624 -0.68879086 -0.818708 0.457653 -0.346803
-0.01934225 -1.85423291 -0.73879409 -0.008926 -0.929579 -0.368516
1.31419694 -1.34844255 -0.65283477 0.660294 -0.676518 -0.326091
1.84190404 -0.35529616 -0.64481896 0.928398 -0.177838 -0.326269
0.25663134 1.75647807 -0.88195467 0.129750 0.885436 -0.446283
-1.39423609 1.00450146 -0.99920100 -0.702007 0.505245 -0.501910
-1.72019029 0.23075525 -0.96244711 -0.866493 0.116010 -0.485522
-1.52340555 -1.01945603 -0.77098501 -0.765892 -0.512221 -0.388637
-0.09231704 -1.72497535 -0.98970240 -0.045456 -0.866412 -0.497257
0.05121642 -1.78545129 -0.87804163 0.027989 -0.896990 -0.441164
0.88990748 -1.48606193 -0.99288088 0.443692 -0.743885 -0.499772
1.28603578 1.14228773 -1.00237191 0.645206 0.574453 -0.503699
0.97542357 1.26576591 -1.17998469 0.488853 0.636685 -0.596368
-1.35845423 0.89861667 -1.13956356 -0.681906 0.451825 -0.575202
-1.71511078 0.02858323 -1.01972079 -0.858620 0.012169 -0.512468
-1.33779275 -0.95300519 -1.11432779 -0.674480 -0.480337 -0.560672
-1.32430875 -0.86673933 -1.20974886 -0.664495 -0.434670 -0.607872
0.73316133 -1.53206038 -1.03203940 0.368148 -0.770354 -0.520597
1.01878011 -1.37786829 -1.00589085 0.512891 -0.693322 -0.506209
1.46665919 -0.90164942 -1.00719225 0.734757 -0.450761 -0.506900
1.58134568 -0.40524581 -1.14569974 0.792480 -0.203868 -0.574816
1.32155812 0.78291696 -1.27279758 0.662164 0.391354 -0.639046
-0.35993320 1.41882372 -1.35492313 -0.179616 0.710789 -0.680086
-0.80522847 1.21947479 -1.35032237 -0.406381 0.612060 -0.678408
-0.69441718 -1.32099986 -1.31752062 -0.348563 -0.662761 -0.662761
0.51871717 -1.45560026 -1.25182915 0.261755 -0.731327 -0.629798
0.89287543 -1.15030539 -1.35207021 0.448302 -0.578292 -0.681618
1.39625430 0.12085074 -1.41601038 0.699982 0.061805 -0.711481
-0.02415452 -1.32107401 -1.49310589 -0.009725 -0.662692 -0.748829
0.59492636 -1.09434021 -1.55875492 0.297510 -0.548882 -0.781163
0.81364489 -1.06764019 -1.46709430 0.409060 -0.537199 -0.737622
0.54296166 0.84635758 -1.72494090 0.272538 0.424794 -0.863292
-0.31149986 1.14878082 -1.60461056 -0.157318 0.576832 -0.801571
-0.68579429 0.83257961 -1.67370737 -0.345778 0.417749 -0.840192
-1.04907608 -0.52964473 -1.61042988 -0.526679 -0.264121 -0.807991
-0.19676450 -1.08052623 -1.66093600 -0.099373 -0.542949 -0.833866
0.90372455 -0.74276322 -1.61229515 0.456050 -0.372841 -0.808089
1.17561173 -0.11492276 -1.60460138 0.591469 -0.058154 -0.804228
-0.06635131 0.89312041 -1.78045022 -0.033596 0.447499 -0.893653
-0.42886019 0.84715897 -1.75426197 -0.214952 0.425457 -0.879080
-0.54200363 0.57223994 -1.83526421 -0.272489 0.286906 -0.918387
-0.81660259 0.29926163 -1.79297245 -0.411721 0.149587 -0.898949
-0.75399816 0.19897166 -1.84044755 -0.375419 0.099657 -0.921482
-0.37293637 -0.71003997 -1.82791829 -0.186457 -0.357257 -0.915205
-0.14732972 0.69450837 -1.86522818 -0.075535 0.348522 -0.934252
0.66542858 -0.04060975 -1.87986875 0.332826 -0.018982 -0.942797
-0.43815154 0.18414155 -1.93946409 -0.219337 0.091495 -0.971350
-0.45743620 -0.11717702 -1.94075799 -0.227355 -0.057761 -0.972097
0.29737267 -0.20759091 -1.96212947 0.148759 -0.105220 -0.983260
-0.15055707 0.01907711 -1.98996735 -0.075076 0.009517 -0.997132
0.01444369 -0.21921724 -1.98550713 0.007604 -0.109713 -0.993934
0.04076593 -0.12615542 -1.99126351 0.022174 -0.062297 -0.997811
