//X Y Z Nx Ny Nz
194
0.31435108 0.12930860 1.96662116 0.156967 0.064911 0.985468
-0.07150496 0.41588634 1.95021880 -0.036990 0.208815 0.977255
0.02951993 0.61376190 1.89790273 0.013682 0.307228 0.951537
-0.48162070 0.57221967 1.85174942 -0.240116 0.285582 0.927786
-0.22088943 -0.71760690 1.85162997 -0.110558 -0.358973 0.926777
0.07491467 -0.64177454 1.88636506 0.036953 -0.319832 0.946753
0.71463132 0.43552032 1.81131744 0.357656 0.218648 0.907896
0.57751983 0.67651057 1.78336322 0.290152 0.340742 0.894263
0.34534788 0.80661929 1.78878772 0.174334 0.404859 0.897606
-0.04437223 0.85669267 1.79984128 -0.022470 0.429568 0.902755
-0.27076799 0.73418361 1.83627081 -0.134963 0.368712 0.919694
0.91352791 -0.19569859 1.76198864 0.459094 -0.096873 0.883090
1.09460604 0.10180185 1.65988183 0.550395 0.051818 0.833295
0.96465003 0.68783325 1.60225594 0.486447 0.346095 0.802239
-0.90640193 0.58263540 1.67655945 -0.454049 0.292885 0.841462
-1.06685257 -0.41778719 1.62821054 -0.536397 -0.209363 0.817585
0.64450711 -0.78915012 1.71386707 0.322502 -0.396570 0.859491
0.82472807 1.00041080 1.50830507 0.414461 0.502923 0.758479
0.85680711 1.03323996 1.46799326 0.429693 0.518595 0.739204
0.40120909 1.30920827 1.44873559 0.199712 0.657965 0.726084
-1.23498964 0.10743792 1.55898428 -0.620536 0.052540 0.782416
-1.32468235 -0.12697841 1.47806990 -0.665734 -0.064704 0.743379
-1.25628817 -0.40244332 1.49156475 -0.631351 -0.202218 0.748668
-1.13494074 -0.60769761 1.52125251 -0.570591 -0.305274 0.762387
-1.05014706 -0.76173329 1.50732338 -0.529261 -0.382696 0.757250
-0.67130923 -1.11191106 1.51267147 -0.337859 -0.557710 0.758163
0.61810964 -1.17939186 1.48140204 0.309931 -0.592563 0.743513
1.21683300 -0.34549433 1.54308498 0.609322 -0.174743 0.773429
1.39509439 0.73089367 1.22273529 0.699452 0.365288 0.614273
1.06708610 1.15724230 1.22376716 0.534788 0.578650 0.615765
-1.24930048 0.84597504 1.29457927 -0.628303 0.424979 0.651635
-1.51054001 0.17423628 1.27821779 -0.760243 0.085764 0.643953
-1.44659162 -0.54850155 1.24829233 -0.727321 -0.275331 0.628647
-0.67987561 -1.34373915 1.29975879 -0.341272 -0.674380 0.654786
-0.20106506 -1.40695930 1.39230132 -0.101542 -0.707853 0.699023
0.79852438 -1.21558452 1.35856593 0.401788 -0.610122 0.682874
1.59751213 0.50831312 1.07064724 0.803493 0.254309 0.538262
0.32159376 1.61647964 1.10960031 0.160323 0.813601 0.558883
-0.97519392 1.37548232 1.04880130 -0.489311 0.693051 0.529391
-1.49482918 0.79087949 1.05062068 -0.750486 0.397316 0.528120
-1.61940467 0.53104091 1.02698648 -0.813424 0.266978 0.516782
-1.60422099 0.28916895 1.13433540 -0.807233 0.144202 0.572347
-1.67692316 -0.31755716 1.01993549 -0.842969 -0.158520 0.514077
-0.86309332 -1.32150090 1.21646178 -0.432039 -0.662238 0.612195
0.34453103 -1.55140638 1.20246994 0.171617 -0.779111 0.602938
0.73418075 -1.45250630 1.14239800 0.367402 -0.729906 0.576414
1.28535342 -0.91264665 1.21421504 0.645280 -0.457563 0.611759
1.28864717 1.17542279 0.95772034 0.647269 0.590108 0.482510
0.06850577 1.74212754 0.96127784 0.034018 0.874932 0.483050
-0.53860569 1.71743822 0.84539884 -0.269716 0.864005 0.425145
-1.36935258 1.14513469 0.86447603 -0.690943 0.577728 0.434545
-1.64345872 0.54552293 0.97977704 -0.826190 0.272285 0.493225
-1.66927111 0.47746399 0.98427147 -0.835619 0.237653 0.495239
-1.79196990 -0.07863231 0.85750407 -0.901809 -0.041539 0.430135
-0.19728369 -1.73679078 0.93772066 -0.097566 -0.875270 0.473692
0.37301260 -1.69266891 0.98027730 0.186832 -0.850460 0.491743
0.99138141 -1.50811005 0.83075976 0.499786 -0.758691 0.417854
1.05892289 1.56686151 0.59970075 0.532542 0.790069 0.303628
0.66012090 1.74329317 0.67248607 0.331951 0.880656 0.338014
-0.70485419 1.77416146 0.53688306 -0.354906 0.895433 0.268778
-1.36084569 1.33039224 0.59430271 -0.683111 0.667038 0.297354
-1.44082105 1.23297226 0.58199215 -0.726810 0.620917 0.293612
-1.81303728 0.57720876 0.57530582 -0.912314 0.289554 0.289554
-1.87724817 0.01461321 0.67282689 -0.941411 0.006268 0.337203
-1.70277393 -0.85706508 0.55977690 -0.857536 -0.431069 0.280732
0.64600027 -1.73976779 0.69822037 0.322987 -0.877979 0.353315
1.05749321 -1.55337644 0.63407481 0.532156 -0.784650 0.318015
1.11961830 -1.51054263 0.62267411 0.565134 -0.763652 0.312185
1.47864139 1.28579211 0.31226689 0.746638 0.646683 0.155991
1.26778936 1.45901573 0.44679087 0.639085 0.735964 0.223445
0.85979927 1.75173867 0.35485691 0.431138 0.884198 0.179763
0.08067195 1.93326497 0.45713919 0.040043 0.971948 0.231763
-0.35361952 1.89971459 0.44515485 -0.179343 0.957826 0.224511
-0.21997756 1.94548762 0.30349064 -0.110749 0.982136 0.152128
-1.91899443 0.19289109 0.45460817 -0.968654 0.097244 0.228587
-1.92904782 0.36670262 0.28902781 -0.971963 0.184228 0.146112
-1.18413007 -1.53005898 0.41923699 -0.597482 -0.773484 0.211512
-0.57572246 -1.88213611 0.29522520 -0.287562 -0.946390 0.147156
0.17062251 -1.93861389 0.37071374 0.086737 -0.978540 0.186912
0.63920903 -1.85575867 0.29560250 0.322534 -0.934661 0.149601
0.99212354 -1.67663097 0.42229378 0.497225 -0.841806 0.210074
1.41388535 -1.33231020 0.42917794 0.711797 -0.668186 0.216499
1.71312356 -0.91174769 0.43495440 0.861504 -0.458567 0.218007
1.79540312 0.81664169 0.17909782 0.906772 0.411419 0.092191
0.33531174 1.94096899 0.22712262 0.168707 0.978991 0.114523
-0.71288496 1.84013021 0.15422451 -0.358938 0.930035 0.078726
-0.74963063 1.82781911 0.11285991 -0.378790 0.923716 0.057151
-1.51224017 1.26615345 0.19025922 -0.762692 0.639724 0.095153
-1.85891712 0.68030429 0.07899208 -0.937944 0.344472 0.039995
-1.90184426 -0.54584932 0.26048875 -0.952664 -0.274272 0.131173
-1.68830943 -1.03978515 0.16131634 -0.848633 -0.522781 0.080755
-1.65932930 -1.08863759 0.05747148 -0.836546 -0.547132 0.028941
0.24807194 -1.96493340 0.03672913 0.125245 -0.991986 0.016625
1.97554743 0.14816296 -0.07546984 0.996475 0.074817 -0.037951
1.87409627 0.65218633 -0.02877098 0.944455 0.328233 -0.016349
1.29606938 1.49983668 -0.06143532 0.654266 0.755572 -0.032362
0.61748207 1.87399828 -0.23453866 0.309154 0.943523 -0.119111
0.11324343 1.98159003 -0.05341758 0.055974 0.998025 -0.028515
-0.54924917 1.91699815 -0.02502121 -0.277114 0.960743 -0.013428
-1.15058517 1.61091864 -0.06817373 -0.579562 0.814180 -0.034913
-1.45671022 -1.33966219 -0.17957193 -0.732742 -0.674240 -0.092141
-1.33096969 -1.46015966 -0.21889076 -0.669484 -0.734511 -0.110842
-0.89234710 -1.77481663 -0.02595493 -0.448754 -0.893537 -0.014561
-0.59903079 -1.88034534 -0.25295764 -0.301565 -0.944905 -0.127328
0.10036475 -1.97649527 -0.15701859 0.051696 -0.995430 -0.080294
0.30274585 -1.95096993 -0.13994960 0.154949 -0.985284 -0.072152
1.46797478 -1.31748402 -0.24981391 0.737677 -0.663164 -0.126672
1.93287027 0.20233315 -0.37860060 0.975941 0.102926 -0.192212
1.18492770 1.53950465 -0.37877595 0.597950 0.778405 -0.191160
-0.24007790 1.92548132 -0.39076549 -0.122354 0.972528 -0.198037
-0.53711897 1.87354994 -0.41035876 -0.269386 0.940777 -0.205838
-0.95539552 1.68316460 -0.49060628 -0.479078 0.843361 -0.243365
-1.48263180 1.23715746 -0.44634253 -0.748376 0.623387 -0.226544
-1.77133703 0.85737085 -0.26775643 -0.892114 0.431117 -0.135169
-1.89656925 0.32200474 -0.48189211 -0.956692 0.160554 -0.242822
-1.78605497 -0.77024084 -0.36788130 -0.902994 -0.387409 -0.185784
-1.76942861 -0.73755497 -0.50919724 -0.891834 -0.372463 -0.256718
-1.50308096 -1.23287547 -0.37729570 -0.760030 -0.621843 -0.188856
0.29206744 -1.93766153 -0.29512161 0.148224 -0.977783 -0.148224
0.62937212 -1.81730068 -0.49485621 0.316796 -0.915671 -0.247361
1.30441654 -1.44727457 -0.38096088 0.657559 -0.728397 -0.192494
1.77163613 -0.78841186 -0.40016976 0.895041 -0.398607 -0.200034
1.81695652 -0.67348021 -0.41087765 0.917969 -0.338350 -0.207007
1.79567373 0.45637673 -0.74180597 0.899682 0.226749 -0.373039
1.56610394 0.99682134 -0.71381736 0.787511 0.500851 -0.359131
0.01646594 1.88843489 -0.63915348 0.006225 0.947413 -0.319954
-1.63030362 0.94761616 -0.65148282 -0.817920 0.473033 -0.327484
-1.88859987 -0.28725186 -0.53364718 -0.952481 -0.145203 -0.267760
-1.78745508 -0.58583766 -0.63572121 -0.900302 -0.294187 -0.320797
-0.38482535 -1.87325001 -0.54102421 -0.193558 -0.943081 -0.270432
-0.42836407 -1.79901588 -0.74282521 -0.213673 -0.902659 -0.373564
0.48770359 -1.86743104 -0.51826632 0.242476 -0.934864 -0.259295
1.26780307 -1.38338959 -0.65437245 0.637783 -0.696206 -0.329440
1.74645007 -0.75093758 -0.56055468 0.881725 -0.378313 -0.281851
1.80849683 0.24037969 -0.78080976 0.911233 0.121034 -0.393708
1.76306987 0.33427680 -0.84785950 0.888049 0.169497 -0.427364
1.41353357 0.99029708 -0.98557389 0.710551 0.497552 -0.497552
0.98262590 1.44564354 -0.94302213 0.492747 0.728337 -0.476157
-0.39614099 1.77337396 -0.81044930 -0.197560 0.891217 -0.408292
-0.86800700 1.51046741 -0.97866988 -0.434399 0.755690 -0.490133
-1.38593459 1.10783100 -0.88401592 -0.699893 0.556922 -0.447200
0.74002504 -1.58814728 -0.93205684 0.370747 -0.800879 -0.470255
1.34036422 -1.24639201 -0.78543830 0.673248 -0.626931 -0.392039
1.20790648 1.15451336 -1.08470368 0.606077 0.579066 -0.545301
0.48476183 1.58135223 -1.10678887 0.244236 0.794933 -0.555364
-0.97711837 1.26814461 -1.17557859 -0.489833 0.637961 -0.594196
-1.68813419 0.13947225 -1.03824544 -0.849674 0.069045 -0.522768
-1.62900186 -0.24650148 -1.10565495 -0.819875 -0.124668 -0.558805
-0.12424606 -1.58308935 -1.19845605 -0.061364 -0.794882 -0.603653
0.00811126 -1.70159543 -1.04398143 0.004047 -0.851234 -0.524770
0.45937368 -1.65934932 -1.01267874 0.228124 -0.831350 -0.506771
1.27805471 -0.97161406 -1.16876841 0.643202 -0.488699 -0.589462
1.44436419 -0.79932505 -1.11612117 0.725185 -0.399592 -0.560744
1.22863495 0.85895133 -1.30435038 0.617693 0.431219 -0.657651
0.70800680 1.27413464 -1.36133718 0.354900 0.639474 -0.681996
0.51367855 1.36106765 -1.35449469 0.258903 0.684583 -0.681407
0.23418541 1.45264673 -1.33523297 0.117182 0.731275 -0.671942
0.06254769 1.50132036 -1.30549765 0.029558 0.753032 -0.657320
-1.51081038 -0.06015950 -1.29503465 -0.758164 -0.032352 -0.651261
-1.47775459 -0.54091078 -1.21852040 -0.742529 -0.271890 -0.612149
1.29830873 -0.63585657 -1.36740601 0.653626 -0.319514 -0.686064
0.34564120 1.19655252 -1.55960906 0.174468 0.599259 -0.781313
-0.97407228 0.97999603 -1.44221294 -0.486916 0.490240 -0.722896
-1.30042350 0.18542060 -1.49259675 -0.654145 0.092195 -0.750730
-1.14516115 -0.61200190 -1.51144338 -0.575531 -0.306202 -0.758290
-0.31016991 -1.29960680 -1.47890997 -0.155730 -0.651647 -0.742364
0.28034568 -1.35085964 -1.43740594 0.139966 -0.678759 -0.720899
0.66992694 -1.06959605 -1.54311049 0.335847 -0.538319 -0.772929
1.18162191 -0.32706568 -1.57809818 0.592565 -0.164350 -0.788579
1.03021288 0.04103979 -1.70825315 0.515959 0.023143 -0.856301
0.71964896 0.75881135 -1.69925988 0.362331 0.380992 -0.850624
0.09134438 -1.19984424 -1.59048378 0.046546 -0.602279 -0.796927
0.10616900 -1.05787361 -1.68404150 0.054467 -0.532096 -0.844930
0.73389179 -0.84914297 -1.64511836 0.369288 -0.426345 -0.825746
1.05545831 -0.17761229 -1.67937064 0.529653 -0.087086 -0.843732
-0.59519893 0.78866816 -1.73375106 -0.297765 0.395493 -0.868862
-0.90413141 0.05061005 -1.77604222 -0.452939 0.025386 -0.891180
-0.97440207 -0.12401062 -1.73662305 -0.489635 -0.062418 -0.869691
-0.88979453 -0.39226806 -1.74163449 -0.446129 -0.197127 -0.872989
-0.30163249 -0.70231807 -1.84503925 -0.151820 -0.352390 -0.923457
-0.17844513 -0.79732549 -1.82041347 -0.088966 -0.398296 -0.912932
0.48672912 -0.85272574 -1.74068856 0.242372 -0.426033 -0.871637
0.47228643 -0.73267305 -1.79306519 0.236180 -0.368207 -0.899246
0.97344720 -0.15511277 -1.73507476 0.488474 -0.076980 -0.869176
0.58079088 0.22761485 -1.89402664 0.292682 0.112570 -0.949561
0.30109662 0.64845586 -1.86299491 0.149852 0.325824 -0.933479
-0.11528388 0.60706568 -1.89634311 -0.057746 0.304127 -0.950880
-0.54375976 -0.04488213 -1.92097878 -0.273835 -0.023331 -0.961494
-0.24965155 -0.61101002 -1.88158035 -0.124904 -0.304873 -0.944167
0.42512837 -0.36377627 -1.91626620 0.213191 -0.181411 -0.960021
0.59080207 -0.27824336 -1.88422632 0.295307 -0.138889 -0.945253
0.71346051 -0.00827670 -1.86500907 0.357621 -0.003791 -0.933859
-0.15613711 0.21285310 -1.98186672 -0.079243 0.106806 -0.991117
-0.18633391 -0.08017728 -1.98659098 -0.093639 -0.040760 -0.994772
