//X Y Z Nx Ny Nz
202
-0.07293227 0.25814086 1.98136866 -0.037367 0.130217 0.990781
0.35819152 -0.24165100 1.94828904 0.178340 -0.120972 0.976504
0.05244037 0.70478803 1.86597919 0.024378 0.352846 0.935364
0.48603636 -0.42984557 1.88595092 0.242968 -0.215514 0.945791
0.41460657 0.78450364 1.78576756 0.206106 0.393210 0.896050
0.25625798 0.96189433 1.73420513 0.128281 0.482854 0.866254
-0.47148371 0.64573205 1.82761645 -0.235168 0.324618 0.916144
-0.85455483 0.34876001 1.76611006 -0.429359 0.173199 0.886371
-0.93059456 0.01179021 1.76551223 -0.466669 0.003966 0.884423
-0.71459430 -0.67571372 1.73860180 -0.360238 -0.338777 0.869171
0.71762270 -0.51642972 1.78563774 0.359971 -0.259238 0.896224
0.92210013 -0.08354275 1.76504278 0.462481 -0.042044 0.885632
1.04022872 0.52488405 1.61716640 0.521767 0.263220 0.811464
-0.42948210 0.92442960 1.71387291 -0.215099 0.464795 0.858893
-0.51124656 1.09224951 1.58829319 -0.254921 0.548940 0.796041
-0.93960756 0.43457013 1.70311022 -0.471606 0.218476 0.854316
-1.02127802 -0.56399328 1.61887932 -0.513034 -0.280835 0.811127
-0.59144229 -0.95584130 1.64651227 -0.296000 -0.480805 0.825355
0.50677645 -0.91720551 1.69843614 0.252188 -0.460052 0.851325
0.56819034 -0.85918760 1.70773017 0.284301 -0.431830 0.855976
1.19332767 -0.04164474 1.59920990 0.598314 -0.020823 0.800991
1.21214926 0.45217726 1.51080072 0.609840 0.226156 0.759571
0.93625766 0.94734782 1.48548627 0.469297 0.472590 0.745935
0.77844000 1.09960687 1.46361864 0.391703 0.552317 0.735877
0.55257267 1.10598218 1.56357765 0.275927 0.556584 0.783632
-0.97587442 0.72566259 1.57886791 -0.489899 0.364613 0.791869
-1.25204539 0.63910091 1.41492319 -0.626077 0.321936 0.710201
-1.29758489 0.07255926 1.50811672 -0.652590 0.035237 0.756892
-1.40700281 -0.04316640 1.41555333 -0.705502 -0.023844 0.708307
-0.97462016 -0.97662181 1.44428575 -0.485748 -0.489063 0.724477
-0.94045383 -1.03449142 1.42207313 -0.471110 -0.517722 0.714156
0.47738665 -1.24739993 1.47345996 0.240579 -0.627393 0.740607
1.05769396 -0.84513861 1.45711565 0.532158 -0.423420 0.733159
0.23176129 1.49230957 1.29036987 0.116987 0.750793 0.650095
-1.38660395 -0.54395807 1.31403351 -0.697586 -0.272968 0.662467
-1.41757417 -0.66900086 1.22609007 -0.712893 -0.336148 0.615458
-1.29473901 -0.81028682 1.27810597 -0.649259 -0.406825 0.642617
-0.43763831 -1.42578113 1.31919956 -0.219887 -0.715802 0.662780
-0.26400280 -1.42902839 1.35768807 -0.133235 -0.717076 0.684142
0.68997812 -1.39734662 1.23835051 0.343660 -0.701978 0.623799
1.17123842 -0.92570257 1.30998588 0.587398 -0.466906 0.661032
1.44714582 -0.15733889 1.35304177 0.727869 -0.077000 0.681379
1.60075510 0.29660445 1.13805747 0.804435 0.150738 0.574597
1.52481318 0.49053663 1.18230319 0.766112 0.245971 0.593776
-0.38740730 1.64731395 1.05048609 -0.194996 0.826844 0.527547
-0.67262936 1.44295645 1.19127250 -0.336321 0.726259 0.599529
-1.35503840 0.90275913 1.13984740 -0.681906 0.451825 0.575202
-1.50264287 0.67198759 1.10840368 -0.756795 0.337250 0.559932
-1.51124096 -0.51456225 1.18735230 -0.759039 -0.257221 0.598078
-1.22054160 -1.05964041 1.15675449 -0.613565 -0.532433 0.583141
0.04101104 -1.71366739 1.01943243 0.020403 -0.858273 0.512788
0.61499363 -1.54770017 1.07848966 0.308002 -0.780379 0.544191
0.84564203 -1.39165092 1.14848793 0.422619 -0.697737 0.578409
1.36233985 -1.00493693 1.03720844 0.685629 -0.504583 0.524699
1.75051355 0.35455903 0.86790657 0.881312 0.179770 0.437002
-1.12534702 1.34095716 0.93518889 -0.567933 0.675154 0.470765
-1.09996748 1.44970322 0.79033315 -0.553544 0.730941 0.399143
-1.29692972 1.15064156 0.97513580 -0.649853 0.579327 0.492008
-1.78320253 0.12364392 0.86326599 -0.898395 0.061347 0.434883
-1.63825476 -0.69855094 0.86983520 -0.825802 -0.352111 0.440533
-1.22675979 -1.30594432 0.86573368 -0.616087 -0.656157 0.435769
-1.03556609 -1.44713473 0.87468666 -0.521395 -0.729953 0.441945
-0.60094106 -1.72475755 0.78277826 -0.300544 -0.868069 0.395132
0.20975898 -1.74639249 0.91491961 0.105994 -0.880454 0.462132
0.25024289 -1.78284669 0.83019030 0.125627 -0.899148 0.419226
0.82868540 -1.63599730 0.77224457 0.415052 -0.822154 0.389609
1.00129104 -1.41441500 0.97045511 0.505009 -0.711679 0.488342
1.59618366 -0.71309966 0.93794578 0.803548 -0.359440 0.474461
1.77435637 0.52976966 0.73543304 0.890213 0.263933 0.371295
1.65705085 0.93576342 0.59580731 0.831220 0.469413 0.297867
1.11823094 1.49814868 0.65440011 0.563353 0.757056 0.330909
-1.90069950 0.23384474 0.51871610 -0.958069 0.116011 0.262003
-1.80746126 -0.50844908 0.66879791 -0.907744 -0.252882 0.334740
-1.33995867 -1.29604888 0.70566106 -0.673178 -0.650248 0.352149
-0.65097523 -1.73553479 0.70418346 -0.327439 -0.875708 0.354852
0.25882471 -1.89304030 0.53159130 0.130701 -0.954511 0.268003
0.80434120 -1.66077936 0.73500925 0.404719 -0.836210 0.370074
1.20245433 -1.48370802 0.53609532 0.607790 -0.747439 0.268189
1.53559029 -1.13185358 0.54149771 0.775051 -0.569844 0.273083
1.17054772 1.54263234 0.41058239 0.589606 0.780496 0.207824
0.94837129 1.70514178 0.40127873 0.474116 0.856998 0.201911
0.11472221 1.96602893 0.26988700 0.056560 0.989223 0.135051
-1.01302874 1.69688916 0.27626699 -0.506516 0.851006 0.138672
-1.69751811 0.99143279 0.34040013 -0.851431 0.496051 0.170286
-1.92731297 -0.16275916 0.43273130 -0.972537 -0.083218 0.217361
-0.15516895 -1.94383299 0.35470316 -0.078585 -0.980497 0.180141
0.47417763 -1.86965740 0.51647043 0.235948 -0.936812 0.258286
1.76828074 0.88222963 0.17845944 0.891597 0.443712 0.090412
1.42772961 1.38097644 0.14635301 0.716664 0.693499 0.073838
0.69118321 1.84823251 0.16683201 0.348561 0.933502 0.084135
0.71578819 1.83909202 0.15188660 0.361334 0.929334 0.076000
-1.69966102 1.01511192 0.25386754 -0.852345 0.506761 0.129231
-1.71369851 1.01021719 0.12834270 -0.859318 0.507207 0.065671
-1.89025652 0.57890797 0.23055308 -0.950007 0.290170 0.115273
-1.93260896 0.47427690 0.07554299 -0.970093 0.239784 0.037733
-1.98482096 -0.01987189 0.19167325 -0.995333 -0.011836 0.095767
-1.93589997 -0.43340820 0.10742312 -0.974592 -0.217793 0.052319
0.72755468 -1.83763409 0.10332230 0.367491 -0.928607 0.051370
1.65845883 -1.07564843 0.18978252 0.836274 -0.539764 0.096438
1.90065730 -0.55281520 0.23634280 0.953562 -0.277519 0.117058
0.38687804 1.94836354 -0.01072478 0.195224 0.980742 -0.005776
-0.29018065 1.94697058 -0.22620623 -0.146975 0.982668 -0.112964
-0.91234875 1.75991356 -0.12004380 -0.460039 0.885746 -0.061796
-1.30574429 1.47724605 -0.24660265 -0.657133 0.743559 -0.123678
-1.79066670 0.81947386 -0.22975685 -0.903235 0.413107 -0.116230
-1.99181819 0.04032315 -0.04383560 -0.999540 0.019320 -0.023387
-1.42157221 -1.38993537 -0.13759997 -0.712521 -0.698068 -0.070818
0.21067891 -1.96610582 -0.09394974 0.106607 -0.993130 -0.048254
1.25621998 -1.52346957 -0.14621970 0.634031 -0.769792 -0.073657
1.81400418 -0.77989060 -0.13106757 0.916420 -0.394289 -0.068631
1.93252099 -0.41356152 -0.19884047 0.972879 -0.209100 -0.098916
1.93336642 -0.38121620 -0.25091171 0.973787 -0.190222 -0.124715
1.91123927 0.25203949 -0.45444864 0.965066 0.127900 -0.228670
1.58427501 1.11900878 -0.40215290 0.800009 0.564443 -0.203444
0.05432355 1.93640065 -0.45881441 0.025241 0.972393 -0.231980
-0.27351895 1.92605996 -0.36572295 -0.137892 0.972833 -0.185964
-0.58925325 1.84607613 -0.43790090 -0.294985 0.930120 -0.218769
-1.54529858 1.15601337 -0.44472227 -0.779716 0.584399 -0.224769
-1.72025824 0.97772682 -0.27349827 -0.862324 0.487148 -0.138146
-1.68294275 0.94328821 -0.51514000 -0.843579 0.471728 -0.256608
-0.80291742 -1.76262116 -0.41425365 -0.403733 -0.891150 -0.207005
-0.07599504 -1.96246648 -0.31342912 -0.038083 -0.986688 -0.158101
0.36453742 -1.92227256 -0.32452267 0.184063 -0.969226 -0.163468
0.62049055 -1.85118389 -0.35335732 0.312924 -0.933210 -0.176628
1.71301961 -0.96469730 -0.33269465 0.859973 -0.482352 -0.166684
1.17406237 1.43124366 -0.71112633 0.592004 0.722474 -0.357160
0.23163031 1.85051799 -0.66740489 0.115250 0.934202 -0.337614
-0.06160096 1.91257727 -0.55052781 -0.030985 0.960546 -0.276389
-1.61194515 0.94769460 -0.69461733 -0.808520 0.473630 -0.349242
-1.78760207 -0.47352791 -0.75893253 -0.894565 -0.237274 -0.378753
-1.78815401 -0.62530208 -0.58892846 -0.901762 -0.314362 -0.296652
1.07423770 -1.56865537 -0.56776994 0.541377 -0.790757 -0.285683
1.38858843 -1.22977376 -0.71090579 0.699100 -0.620512 -0.355280
1.83676636 -0.53482163 -0.55836344 0.921924 -0.268118 -0.279588
1.83149052 -0.35994667 -0.67369258 0.922858 -0.181754 -0.339556
0.49340528 1.72557855 -0.86539531 0.246498 0.866525 -0.434019
0.22983107 1.74473345 -0.91292548 0.115239 0.880653 -0.459533
-0.00787106 1.78196216 -0.89668858 -0.003948 0.893629 -0.448789
-1.24671912 1.22136796 -0.96854836 -0.624495 0.611029 -0.486466
-1.70008218 0.66664153 -0.77798110 -0.856457 0.336078 -0.391833
-1.55604970 0.78159523 -0.96017188 -0.781743 0.393299 -0.483936
-1.77451420 0.29377246 -0.83546597 -0.895018 0.147028 -0.421101
-1.76654673 -0.34308133 -0.83845854 -0.889798 -0.172734 -0.422400
-1.39416134 -1.13837540 -0.83263588 -0.703424 -0.574325 -0.418744
-0.07702905 -1.80096078 -0.83970058 -0.038671 -0.905437 -0.422715
0.15699461 -1.77780092 -0.86531597 0.078672 -0.895757 -0.437527
1.46419525 -1.05886388 -0.81799555 0.737925 -0.534133 -0.412515
1.72156477 -0.25404975 -0.95344126 0.867459 -0.128459 -0.480639
1.35204291 0.85923707 -1.18342876 0.678165 0.431559 -0.594852
1.08318770 1.25205529 -1.09737563 0.544649 0.628960 -0.554767
0.40390924 1.61709869 -1.09245491 0.203170 0.811154 -0.548407
0.07609963 1.66267645 -1.08883214 0.037429 0.835919 -0.547575
-1.62295091 -0.01039355 -1.16123176 -0.812787 -0.006853 -0.582520
-1.59048581 -0.48149568 -1.09593773 -0.798045 -0.241125 -0.552253
-1.25968552 -0.94789332 -1.21256506 -0.632348 -0.474681 -0.612220
-0.69958431 -1.55020797 -1.02612698 -0.352389 -0.780406 -0.516516
0.61263597 1.32307255 -1.35131288 0.308108 0.666223 -0.679129
0.42364237 1.34635818 -1.40975249 0.213107 0.673541 -0.707763
-0.00077935 1.52967298 -1.28244019 -0.001376 0.766300 -0.642481
-0.64071178 1.30626309 -1.35681689 -0.322453 0.656249 -0.682174
-0.79472029 1.27645576 -1.30568731 -0.398655 0.640165 -0.656706
-1.26984525 0.92159253 -1.22288954 -0.639029 0.461241 -0.615547
-1.37865460 0.37959892 -1.39481997 -0.689615 0.189760 -0.698872
-1.31319571 -0.84110731 -1.23968625 -0.657732 -0.421281 -0.624429
-0.00391626 -1.53998065 -1.27021575 -0.001375 -0.771254 -0.636526
0.35063294 -1.51405323 -1.24773073 0.175140 -0.759955 -0.625935
1.47996211 -0.46331775 -1.25032592 0.743071 -0.233090 -0.627308
0.38157287 1.20168340 -1.54325306 0.191719 0.602764 -0.774544
-0.05014695 1.39784825 -1.42277575 -0.026699 0.701211 -0.712453
-0.06282854 1.21385515 -1.58266914 -0.032239 0.609733 -0.791951
-1.34663296 0.12560511 -1.45897830 -0.677876 0.061887 -0.732567
-1.22543502 -0.59786963 -1.45062637 -0.615769 -0.300650 -0.728312
-0.61657029 -1.10708666 -1.54101181 -0.308125 -0.557179 -0.771110
-0.45045555 -1.21150529 -1.51190960 -0.226156 -0.609840 -0.759571
0.90848303 -0.87956542 -1.54328728 0.454451 -0.441420 -0.773707
1.11139739 -0.65432578 -1.52217698 0.558989 -0.327017 -0.761965
1.28768599 -0.46336484 -1.44528389 0.647260 -0.233515 -0.725621
1.34121203 -0.18831527 -1.45649195 0.675501 -0.095244 -0.731182
0.95266426 0.49505141 -1.67938197 0.479956 0.246878 -0.841839
0.85065168 0.70973337 -1.65422320 0.427050 0.357714 -0.830463
0.22345287 1.09726107 -1.64740646 0.111920 0.550880 -0.827046
-0.46023223 0.94892162 -1.69069242 -0.229075 0.477873 -0.848034
-0.70643777 0.80201304 -1.68158114 -0.355339 0.402300 -0.843735
-1.00251257 0.49701649 -1.64783740 -0.505129 0.248702 -0.826433
-1.15739179 -0.11275233 -1.61696649 -0.581864 -0.058045 -0.811212
-0.79485601 -0.63004571 -1.71674931 -0.398893 -0.315726 -0.860931
-0.15874197 -1.10268831 -1.64947248 -0.078419 -0.554636 -0.828390
0.06748062 -1.07354403 -1.67697418 0.034523 -0.539947 -0.840991
0.44004646 0.65718031 -1.83261800 0.219097 0.330794 -0.917917
0.20270748 0.79958618 -1.81772351 0.100565 0.400882 -0.910594
-0.60187250 0.65045935 -1.78626955 -0.302490 0.326331 -0.895549
-0.96061158 0.20391957 -1.73823583 -0.481478 0.100841 -0.870638
-0.50641507 -0.12733212 -1.92997086 -0.251753 -0.063878 -0.965681
-0.12291430 -0.67996323 -1.87125671 -0.061535 -0.339097 -0.938737
0.40616378 -0.42064121 -1.90865028 0.204586 -0.209935 -0.956071
0.51542836 -0.40560150 -1.88302040 0.259638 -0.204688 -0.943764
0.27937150 0.29709175 -1.95340729 0.139827 0.149726 -0.978790
0.04823775 0.30790651 -1.97230661 0.023918 0.156035 -0.987462
-0.42786705 -0.16668066 -1.94271088 -0.214474 -0.083062 -0.973191
0.03531126 -0.44542301 -1.94529140 0.017802 -0.224304 -0.974357
0.27721629 -0.39007050 -1.93887115 0.139058 -0.195192 -0.970857
0.08116139 0.12558286 -1.99014711 0.041949 0.063462 -0.997102
