//X Y Z Nx Ny Nz
204
0.02039810 0.39593479 1.95552576 0.008119 0.198340 0.980100
-0.15203056 0.43576068 1.94237256 -0.075405 0.218799 0.972852
0.19016351 0.51313567 1.92033446 0.096326 0.255585 0.961976
-0.67035347 0.66074502 1.76059246 -0.337114 0.331067 0.881334
-0.72541195 0.29455912 1.83577311 -0.364251 0.146538 0.919700
-0.82323933 0.33603913 1.78292203 -0.413518 0.168577 0.894754
-0.89696604 -0.31235486 1.75355005 -0.451629 -0.155384 0.878571
-0.74725509 -0.60098642 1.74834073 -0.375131 -0.302231 0.876318
0.65249318 -0.59485483 1.78759181 0.328409 -0.298688 0.896065
0.78736573 -0.13332357 1.82825446 0.394361 -0.065951 0.916586
-0.37236023 1.03899848 1.65726948 -0.188051 0.522030 0.831938
-0.57069474 0.92337489 1.67238343 -0.286725 0.463409 0.838476
-1.00068319 -0.16952504 1.71668160 -0.501731 -0.086213 0.860717
-0.39792961 -1.09942210 1.61305261 -0.199566 -0.552997 0.808930
0.90595198 -0.59651613 1.67110515 0.455583 -0.300094 0.838086
1.21192336 0.14707085 1.57463706 0.608692 0.073388 0.790005
1.16750538 0.58661091 1.50177836 0.585689 0.295238 0.754853
0.61242551 1.12146962 1.53066099 0.305637 0.564868 0.766492
-0.60512984 1.26503682 1.41580558 -0.304117 0.635588 0.709606
-0.89269829 1.06240702 1.42819858 -0.446544 0.532865 0.718786
-1.29969049 -0.19055092 1.49264741 -0.653965 -0.095096 0.750524
1.25001454 -0.44683421 1.48166513 0.628642 -0.226186 0.744076
-0.02553249 1.41747773 1.40665841 -0.015340 0.709807 0.704229
-1.51820397 0.40496895 1.23484087 -0.759802 0.201895 0.618013
-1.23913801 -0.87617314 1.28270900 -0.623342 -0.439515 0.646739
-0.70264554 -1.27000654 1.36808324 -0.351983 -0.636844 0.685958
0.08440197 -1.49918234 1.30465460 0.043960 -0.752990 0.656562
1.06885028 -1.10523450 1.26998651 0.534022 -0.554237 0.638468
1.45829248 0.63060123 1.19416308 0.733334 0.317510 0.601173
1.21224201 1.05776477 1.16841757 0.609031 0.531426 0.588786
0.94632727 1.30147004 1.16396368 0.474195 0.655160 0.588136
0.81696302 1.49990296 1.02847719 0.408303 0.752654 0.516527
-1.24865532 1.13835168 1.05075502 -0.626629 0.572580 0.528666
-1.60841537 0.22963844 1.13978744 -0.809655 0.115665 0.575396
-1.49284923 -0.66738296 1.12472200 -0.752082 -0.334798 0.567700
-0.95546275 -1.27384996 1.18864596 -0.479120 -0.640508 0.600161
-0.70036393 -1.42618883 1.19863546 -0.351043 -0.716782 0.602489
-0.58160776 -1.57559311 1.05887568 -0.292952 -0.793346 0.533648
0.09620554 -1.58975363 1.19400704 0.049444 -0.798173 0.600396
1.18094850 -1.13372719 1.13608932 0.593004 -0.565973 0.572731
1.25710130 -1.15866101 1.02197754 0.631457 -0.580941 0.513585
1.70859027 -0.17680743 1.00027454 0.859767 -0.089235 0.502829
1.71293926 0.41203454 0.92875564 0.860884 0.205115 0.465626
1.66427910 0.49310869 0.98145914 0.834092 0.247309 0.493082
-0.71537232 1.58700049 0.95351958 -0.360184 0.798807 0.481846
-0.81297219 1.62601459 0.80340660 -0.406652 0.818088 0.406652
-1.42902541 1.10155380 0.82191074 -0.720825 0.555876 0.414021
-1.80938506 0.14888293 0.80343515 -0.911871 0.074744 0.403615
-1.68197334 -0.64387739 0.83001727 -0.847981 -0.325189 0.418545
-1.50416911 -0.93629658 0.90574062 -0.757393 -0.468237 0.455093
-1.11859155 -1.40401971 0.84127229 -0.565486 -0.708101 0.422870
-0.40865552 -1.71618462 0.92307711 -0.204587 -0.861656 0.464428
1.25364625 -1.26415527 0.90006596 0.627949 -0.634647 0.450449
1.70880628 -0.43848515 0.93007535 0.856335 -0.218222 0.468049
1.79708600 -0.13738959 0.83144343 0.906214 -0.069291 0.417103
1.90330768 0.16640735 0.53718740 0.958990 0.083446 0.270879
1.05849779 1.50742173 0.74058807 0.532247 0.760120 0.372735
0.08115616 1.84339309 0.74675328 0.040535 0.927081 0.372663
0.01055263 1.86165917 0.72032565 0.003797 0.932685 0.360672
-1.21533585 1.38122821 0.75437206 -0.610737 0.696339 0.376978
-1.77244699 0.71720237 0.52754867 -0.894243 0.360366 0.265455
-1.85820985 0.08562998 0.70136940 -0.935204 0.042804 0.351512
-1.85364974 -0.07852011 0.71756035 -0.932050 -0.040298 0.360081
-1.87699163 -0.18227386 0.60855800 -0.947127 -0.093527 0.306927
-1.66187620 -0.89632201 0.62740910 -0.836556 -0.448769 0.314295
-1.29900277 -1.40418839 0.54890883 -0.652039 -0.706243 0.275801
-0.24865527 -1.83858228 0.69596314 -0.124806 -0.928500 0.349730
0.15021811 -1.88469064 0.59831005 0.076484 -0.950220 0.302048
0.27673471 -1.89238417 0.52657813 0.139371 -0.954361 0.264142
1.72029078 -0.73902261 0.64591414 0.868812 -0.372348 0.326379
1.80218065 0.65770507 0.51071000 0.908465 0.331014 0.255187
1.63090122 1.05113447 0.42410064 0.821728 0.529016 0.211911
1.63629329 1.09060836 0.28055862 0.823673 0.548623 0.143440
1.00559425 1.69749129 0.29679260 0.504035 0.850835 0.148419
0.60865337 1.85906386 0.33941123 0.305006 0.937099 0.169754
0.23422953 1.94752479 0.28381610 0.117840 0.982808 0.142137
-0.36392689 1.89646912 0.45464897 -0.183199 0.956112 0.228665
-0.44140923 1.90117288 0.37971857 -0.220708 0.956400 0.191280
-0.98014832 1.70930421 0.32011700 -0.489569 0.857113 0.160249
-1.13361967 1.57043493 0.41272858 -0.572396 0.793375 0.207168
-1.18731987 1.54196596 0.36149099 -0.599172 0.779077 0.184478
-1.75361621 0.83701831 0.39026770 -0.885041 0.421238 0.198143
-1.91988957 0.31720382 0.36783105 -0.969324 0.160484 0.186162
-1.96356726 -0.09802684 0.29331267 -0.987870 -0.049799 0.147080
-1.86815310 -0.55535311 0.40025854 -0.939378 -0.278078 0.200604
-0.96734124 -1.71354663 0.32509416 -0.483621 -0.859934 0.163167
-0.61457580 -1.85067523 0.36721694 -0.308228 -0.933053 0.185495
0.42630553 -1.90676010 0.36162651 0.213191 -0.960021 0.181411
0.96646541 -1.68593025 0.45616943 0.484106 -0.845288 0.226118
1.19246769 -1.52692044 0.40612578 0.602201 -0.771618 0.204841
1.31020248 -1.44667387 0.36551642 0.658966 -0.729624 0.182790
1.51301420 -1.18768466 0.47683421 0.764418 -0.598716 0.239174
1.66329718 -1.04100978 0.32502842 0.836958 -0.521798 0.165013
1.73308539 -0.93565136 0.29505381 0.870277 -0.469281 0.149647
1.83238721 -0.65401900 0.37635285 0.925294 -0.328149 0.190129
1.94801426 0.32078061 0.14882042 0.983703 0.163354 0.075119
1.24370515 1.53263628 0.15154679 0.627605 0.774768 0.076467
-1.96686959 0.19587024 0.11204296 -0.993724 0.097468 0.054896
-1.81617594 -0.75616556 0.23990783 -0.916541 -0.381314 0.120634
-1.10154152 -1.65052354 0.04409372 -0.554265 -0.832085 0.020630
1.51455200 -1.26930654 0.13249621 0.765878 -0.639429 0.067535
1.58439779 -1.18030059 0.11358390 0.801869 -0.594660 0.058189
1.76216114 0.89042890 -0.21717706 0.887439 0.447247 -0.111459
0.52442735 1.92531574 -0.05294123 0.263428 0.964267 -0.028181
0.39932379 1.93783700 -0.14633267 0.201678 0.976610 -0.074560
0.28134489 1.94676149 -0.24714588 0.139965 0.982189 -0.125360
-0.47022045 1.92380202 -0.21805662 -0.236582 0.965512 -0.108700
-1.50084555 1.29316306 -0.07634450 -0.757002 0.652295 -0.038204
-1.69375134 1.03247690 -0.16333953 -0.851727 0.517272 -0.083614
-1.85108209 0.69719225 -0.09092864 -0.934327 0.353142 -0.048215
-1.90625489 -0.56644881 -0.07647099 -0.957962 -0.284258 -0.038819
-1.66355610 -1.08409894 -0.04838756 -0.837434 -0.545914 -0.026127
-0.85742933 -1.78248739 -0.12252796 -0.431535 -0.899825 -0.063981
0.30531356 -1.94356704 -0.24774018 0.153744 -0.980271 -0.124225
0.72511363 -1.82781231 -0.25733733 0.363639 -0.922233 -0.131352
1.89242697 -0.60455358 -0.04866701 0.952284 -0.304080 -0.026279
1.76205444 0.79841816 -0.42563957 0.890497 0.401827 -0.213425
0.18896225 1.94630730 -0.31989825 0.095458 0.982375 -0.160708
-0.67701226 1.82644963 -0.35955101 -0.340441 0.922439 -0.182228
-1.27596140 1.49779403 -0.26556459 -0.641667 0.755343 -0.133120
-1.80936933 0.68684375 -0.42049044 -0.913773 0.346802 -0.211535
-1.91673410 0.41559592 -0.31857261 -0.964593 0.209581 -0.160115
-1.81719244 -0.68795711 -0.38168043 -0.918342 -0.345980 -0.192211
-1.68897176 -0.94961196 -0.47462404 -0.847210 -0.476080 -0.235759
-1.51983809 -1.22375941 -0.33802426 -0.767053 -0.618199 -0.171638
0.18537340 -1.93190348 -0.39468631 0.095417 -0.975239 -0.199509
0.97539067 -1.72348821 -0.26290151 0.487302 -0.863262 -0.131586
1.71624064 -0.93950182 -0.36649621 0.863346 -0.469435 -0.185108
1.87524486 0.03451724 -0.67100954 0.941715 0.019012 -0.335874
1.81900060 0.28507018 -0.73952615 0.916355 0.144099 -0.373537
1.31745148 1.36958253 -0.59711456 0.661978 0.687749 -0.297971
1.09691143 1.49719965 -0.69520068 0.552742 0.756982 -0.348503
0.50552559 1.81398952 -0.65420127 0.252031 0.910515 -0.327785
-0.35875386 1.84468079 -0.63529801 -0.179937 0.930372 -0.319423
-1.59928262 0.96198010 -0.69862711 -0.803827 0.481018 -0.349976
-1.73738265 0.72089177 -0.61961055 -0.877665 0.362283 -0.313776
-1.74994528 0.56914604 -0.75767082 -0.879286 0.285052 -0.381577
-1.88871992 0.28297713 -0.53495169 -0.952164 0.142492 -0.270335
-1.24882007 -1.42571545 -0.58893442 -0.630531 -0.717169 -0.296815
-0.08269966 -1.84235895 -0.74920118 -0.040594 -0.925803 -0.375821
1.65166104 -0.80459738 -0.75974905 0.831389 -0.402285 -0.383354
1.79435241 -0.44740987 -0.74917644 0.899289 -0.223726 -0.375800
1.75140834 0.50000328 -0.81142288 0.878379 0.250751 -0.406907
1.14428163 1.40868604 -0.80171388 0.575633 0.710881 -0.404097
-1.76080716 0.30591601 -0.86001921 -0.888033 0.154002 -0.433222
-1.78028262 0.05880549 -0.88649648 -0.894875 0.028090 -0.445431
-1.58201790 -0.78309840 -0.90992540 -0.796447 -0.394201 -0.458560
-0.51529914 -1.65410972 -0.98330700 -0.258296 -0.830570 -0.493393
0.08235464 -1.82861280 -0.78220594 0.040982 -0.918783 -0.392631
0.39355072 -1.71378469 -0.93197572 0.198299 -0.860291 -0.469656
1.39359450 -1.12801027 -0.84646136 0.702442 -0.569592 -0.426779
1.73539066 -0.46515065 -0.86896914 0.868986 -0.232630 -0.436744
-0.45898914 1.65457070 -1.01956558 -0.228349 0.829104 -0.510336
-1.11944807 1.17693198 -1.15402102 -0.560284 0.590753 -0.580597
-1.53707218 0.72017038 -1.03255451 -0.773488 0.360100 -0.521579
-1.57112706 -0.18274982 -1.20483184 -0.789776 -0.091631 -0.606513
-1.09621692 -1.26090801 -1.07480085 -0.552262 -0.633328 -0.542128
-0.68468368 -1.47867799 -1.13449132 -0.345232 -0.743951 -0.572146
-0.30995858 -1.60824859 -1.12421155 -0.154070 -0.809239 -0.566916
0.44467548 -1.65819919 -1.02277362 0.221613 -0.829904 -0.512003
1.61537039 -0.47682101 -1.06393361 0.810313 -0.240150 -0.534528
1.68545008 -0.02640135 -1.06454110 0.844940 -0.012246 -0.534721
1.47083771 0.03619793 -1.34421206 0.737090 0.018182 -0.675550
1.41731501 0.34316209 -1.35916138 0.710107 0.172564 -0.682619
1.13196635 0.95400679 -1.32600284 0.567774 0.480682 -0.668265
1.04279244 1.12785125 -1.26759434 0.521303 0.565167 -0.639398
-0.63158470 1.29887700 -1.36868238 -0.315892 0.652843 -0.688482
-0.96530443 1.06583393 -1.37843537 -0.483343 0.533517 -0.694074
-1.10577977 1.00489736 -1.31426573 -0.555548 0.501840 -0.662965
-1.44962502 -0.58584428 -1.22863340 -0.728319 -0.292928 -0.619471
-0.97548056 -1.12224352 -1.31983948 -0.488738 -0.562636 -0.666766
0.95543605 -1.23735881 -1.22883630 0.479315 -0.620587 -0.620587
1.09204149 -0.91991013 -1.38630486 0.547929 -0.461327 -0.697819
1.45930588 -0.51700890 -1.24864340 0.733401 -0.258195 -0.628855
1.35949349 -0.49548429 -1.36417520 0.683470 -0.247817 -0.686627
1.37697399 0.01472943 -1.44517112 0.690212 0.009721 -0.723542
1.30179095 0.34879363 -1.47253537 0.652047 0.175610 -0.737561
0.25752214 1.20083535 -1.57160890 0.128952 0.603258 -0.787052
-0.88870621 1.05264306 -1.43720019 -0.445196 0.527947 -0.723237
-1.04958296 0.65047473 -1.56762934 -0.526463 0.324839 -0.785695
-1.30972791 0.38114399 -1.45510280 -0.657946 0.189525 -0.728826
-0.66795975 -1.12177491 -1.50755310 -0.334595 -0.564123 -0.754858
-0.12912242 -1.27745569 -1.51923907 -0.064697 -0.642653 -0.763421
1.09173834 -0.60671586 -1.55689037 0.549194 -0.304046 -0.778423
1.39453006 -0.04089847 -1.42675352 0.698541 -0.018198 -0.715339
1.20220757 -0.20235918 -1.57677412 0.603701 -0.100860 -0.790805
1.10795712 0.26360533 -1.63672757 0.555676 0.131181 -0.820985
0.27219951 1.04163694 -1.68028533 0.136130 0.522563 -0.841663
-0.30387986 1.04132283 -1.67348397 -0.152412 0.522343 -0.839004
-1.05136085 -0.15741926 -1.68388486 -0.529409 -0.080902 -0.844500
-1.03959382 -0.33829099 -1.66568553 -0.522839 -0.168321 -0.835648
-0.34315413 -1.04403436 -1.66166639 -0.172069 -0.525184 -0.833411
-0.06176138 -1.04815197 -1.69444370 -0.028838 -0.525947 -0.850029
-0.21782842 0.94972950 -1.74269927 -0.109562 0.476667 -0.872230
-0.41268331 0.70176750 -1.82330871 -0.205612 0.352272 -0.913032
-0.68474603 0.58121687 -1.77899396 -0.345201 0.291404 -0.892143
-0.89921641 -0.21261311 -1.76794815 -0.452020 -0.105612 -0.885734
-0.11050583 0.65696889 -1.87961674 -0.055774 0.328160 -0.942974
-0.73958379 -0.12013301 -1.85114253 -0.370042 -0.059684 -0.927096
-0.07344800 -0.73996878 -1.85309827 -0.035175 -0.368689 -0.928887
0.42426226 -0.36911643 -1.91538846 0.213630 -0.184439 -0.959346
-0.43711302 0.26315260 -1.93310106 -0.217604 0.132622 -0.966985
-0.30898821 -0.00073763 -1.97333539 -0.155160 -0.001116 -0.987889
0.08354616 -0.05798229 -1.99328470 0.042875 -0.028235 -0.998681
