//X Y Z Nx Ny Nz
199
-0.00036140 0.08586198 1.99436915 0.001018 0.043791 0.999040
-0.11843397 -0.07578280 1.99073863 -0.058806 -0.037422 0.997568
0.09779820 -0.03335435 1.99318302 0.050916 -0.015587 0.998581
0.36213991 0.22960779 1.94913149 0.180420 0.115718 0.976759
-0.19033568 0.23683581 1.97387266 -0.095193 0.118697 0.988357
0.01216873 0.62286657 1.89558756 0.006191 0.313249 0.949651
-0.59211910 0.21024770 1.89271879 -0.297024 0.104289 0.949158
0.15756427 -0.65255827 1.87901080 0.080378 -0.325464 0.942132
0.54798704 -0.42900741 1.86929786 0.274310 -0.215827 0.937109
0.69585103 -0.04423685 1.86937952 0.348105 -0.021677 0.937205
0.85140657 0.10708673 1.79837644 0.426379 0.055497 0.902841
0.93351835 0.09773582 1.75849056 0.468921 0.050583 0.881790
-0.81541979 -0.32442731 1.78872573 -0.409397 -0.162322 0.897800
-0.44004536 -0.85913754 1.74662817 -0.219208 -0.430960 0.875341
0.52018619 -0.78457159 1.75808132 0.259727 -0.394846 0.881271
0.84353048 -0.19098774 1.79681337 0.422315 -0.095540 0.901400
1.15478361 0.03785085 1.62529802 0.579542 0.020747 0.814678
1.15705132 0.17790815 1.61146235 0.582373 0.091041 0.807808
1.07604170 0.51179284 1.59824407 0.541393 0.257435 0.800388
0.53234124 0.86850709 1.71745515 0.267240 0.435219 0.859748
-0.95408660 -0.31925079 1.72383666 -0.479160 -0.159720 0.863073
0.11051559 1.22603667 1.56648052 0.055442 0.615552 0.786144
-0.72494370 1.00806320 1.55666649 -0.362585 0.507619 0.781572
-1.23939240 -0.10191924 1.55576038 -0.623658 -0.052563 0.779928
-1.16471946 -0.71635723 1.45135558 -0.583512 -0.361222 0.727347
-0.54468346 -1.25568652 1.44390798 -0.275415 -0.632022 0.724358
0.85387063 -1.03937376 1.46526992 0.430001 -0.522262 0.736439
1.40873682 0.60737902 1.26260209 0.708003 0.304812 0.637041
0.99853438 1.14906037 1.27922928 0.502724 0.576704 0.643958
0.08841598 1.47727501 1.32903254 0.044002 0.742362 0.668552
-1.45288181 0.49453199 1.26536226 -0.730765 0.247797 0.636065
-1.39642680 -0.72205567 1.22520947 -0.698875 -0.361713 0.617039
-1.02814364 -1.04677796 1.35182619 -0.514358 -0.524410 0.678550
-0.53705055 -1.36505818 1.33996749 -0.269496 -0.687294 0.674536
-0.39584568 -1.45376348 1.30786049 -0.199263 -0.727543 0.656487
1.20459640 -0.85931194 1.32603168 0.605293 -0.431876 0.668658
1.50359201 -0.03636204 1.30683827 0.754091 -0.018120 0.656519
1.57301867 0.13300590 1.21180201 0.790022 0.067388 0.609364
0.65571171 1.49081230 1.13430488 0.330699 0.750122 0.572674
-0.33655119 1.62217975 1.09812236 -0.169627 0.815110 0.553915
-0.41412151 1.54161298 1.20301640 -0.208283 0.769876 0.603249
-0.96158308 1.39166105 1.04193354 -0.482803 0.699981 0.526239
-0.38143879 -1.56403494 1.17629802 -0.190943 -0.783628 0.591158
0.86227989 -1.38853753 1.13692725 0.430671 -0.696722 0.573673
1.06113172 -1.30049992 1.05962729 0.534077 -0.655381 0.534077
1.29260063 -0.96951586 1.15327668 0.649655 -0.488501 0.582508
1.40031075 -0.86028934 1.12465715 0.702767 -0.430300 0.566534
1.44679809 -0.80685878 1.10837495 0.725562 -0.403090 0.557745
1.76144636 0.14372279 0.90202272 0.887848 0.073182 0.454280
0.64776736 1.69249368 0.80709332 0.326635 0.852967 0.407133
0.12957315 1.82807171 0.77069741 0.062936 0.919934 0.386988
-1.77278745 -0.15565650 0.87583941 -0.894122 -0.078771 0.440842
-0.86749780 -1.50691342 0.98578405 -0.432106 -0.754132 0.494540
-0.62260127 -1.71217656 0.78959775 -0.312119 -0.862556 0.398221
0.52388930 -1.74933898 0.79663754 0.263284 -0.877110 0.401695
0.95246553 -1.43928170 0.99089754 0.476882 -0.722800 0.500144
1.70936203 -0.26170596 0.97614217 0.860550 -0.132057 0.491950
1.71494496 0.77295059 0.62201029 0.866407 0.387966 0.314360
1.58364797 1.06215131 0.55429041 0.798352 0.533809 0.278715
0.78765643 1.69414151 0.66239709 0.397468 0.855252 0.332512
-1.75405300 0.66894287 0.63291782 -0.886772 0.335739 0.317672
-1.80062699 0.47653085 0.71939790 -0.901102 0.238829 0.361906
-1.64759159 -0.87725997 0.68829763 -0.828621 -0.440353 0.345653
-1.42788076 -1.20783234 0.65796995 -0.722019 -0.608443 0.329371
0.06443287 -1.87253332 0.66739494 0.034566 -0.940976 0.336703
0.56976992 -1.79086912 0.64461976 0.285018 -0.902312 0.323415
0.92040235 -1.61614215 0.72557437 0.460994 -0.808734 0.365286
1.38731194 -1.22631228 0.72017628 0.698875 -0.617039 0.361713
1.83630252 -0.51019716 0.58763659 0.921149 -0.254358 0.294595
1.54848731 1.19548130 0.31006271 0.781369 0.603716 0.158080
0.13221052 1.94613385 0.35833120 0.065898 0.981287 0.180921
-0.29549709 1.90665531 0.44873077 -0.150186 0.962496 0.225932
-0.47857592 1.87604606 0.48144078 -0.239701 0.940791 0.239701
-0.60190487 1.84856868 0.40167427 -0.301386 0.932193 0.200457
-0.75713879 1.81050456 0.27876678 -0.380431 0.913876 0.141784
-1.05820501 1.60423398 0.50955349 -0.531122 0.808365 0.253880
-1.48550332 1.21987212 0.48814866 -0.749479 0.614352 0.246684
-1.72517240 -0.94176346 0.32026368 -0.865818 -0.473197 0.162616
-0.57188076 -1.83951390 0.50235456 -0.287250 -0.924630 0.250093
-0.47923699 -1.90618503 0.32948399 -0.240831 -0.956670 0.163658
1.20790362 -1.52934670 0.34871632 0.610756 -0.772203 0.175155
1.80740750 -0.64857173 0.50394630 0.911011 -0.326918 0.251363
1.92206609 -0.14213842 0.47275785 0.968636 -0.071058 0.238107
1.90768301 0.53316581 0.25216988 0.955388 0.267509 0.125189
1.76341927 0.90651000 0.10458834 0.887918 0.456916 0.053193
1.18245637 1.57458258 0.21321742 0.596324 0.795587 0.106957
0.83356643 1.78698874 0.19905815 0.420858 0.901442 0.101395
-1.56104970 1.20057559 0.20869526 -0.789225 0.604731 0.106889
-1.98710823 -0.07059852 0.05488525 -0.999004 -0.036309 0.025935
-1.24106336 -1.53341329 0.16680960 -0.625053 -0.775878 0.085564
-1.21171856 -1.56078529 0.10753766 -0.612407 -0.788598 0.055415
-0.25964290 -1.96037900 0.08297400 -0.130486 -0.990561 0.041983
0.44393265 -1.92593122 0.23837614 0.223639 -0.967399 0.118848
1.00487614 -1.71250439 0.19295631 0.502760 -0.858822 0.098273
1.95856917 -0.25922769 0.11142094 0.989923 -0.129920 0.056337
1.98985112 0.00705325 -0.14067668 0.997514 0.005245 -0.070277
1.93390942 0.40586478 -0.19311476 0.973647 0.205700 -0.098487
1.91394162 0.54819733 -0.07466830 0.960571 0.275339 -0.038622
0.33989120 1.94605744 -0.14028913 0.171166 0.982708 -0.070621
-0.37378547 1.94710600 -0.05620997 -0.188810 0.981576 -0.029318
-1.44157255 1.36530888 -0.12412522 -0.724220 0.686785 -0.061911
-1.73577940 0.96350425 -0.16191070 -0.871158 0.483977 -0.082767
-1.95494628 -0.28374705 -0.11744507 -0.987592 -0.145405 -0.059325
-0.75854182 -1.83047462 -0.02262783 -0.382667 -0.923813 -0.011596
-0.04438069 -1.98190248 -0.18697199 -0.020623 -0.995318 -0.094430
0.23194899 -1.96756792 -0.02891823 0.117655 -0.992918 -0.016494
0.95434260 -1.73470974 -0.23107572 0.476527 -0.871485 -0.115912
1.17644703 -1.59545219 -0.01472257 0.594904 -0.803739 -0.009617
1.04021215 -1.68166339 -0.23845540 0.521810 -0.844488 -0.120641
1.90202844 0.33057779 -0.44877273 0.959658 0.167643 -0.225724
1.78695560 0.70457304 -0.49108902 0.902009 0.353470 -0.247869
0.16824830 1.94210982 -0.35471025 0.083822 0.980349 -0.178577
-1.83702338 0.68607265 -0.29243454 -0.926836 0.344966 -0.148238
-1.76655507 0.75087905 -0.49680412 -0.891190 0.378126 -0.250601
-1.95898581 0.11587697 -0.30453154 -0.986577 0.057210 -0.152949
-1.91001010 -0.35390288 -0.39320868 -0.963799 -0.179159 -0.197468
-1.77036381 -0.82614827 -0.33290297 -0.894177 -0.414586 -0.169013
-1.71241772 -0.94379079 -0.37608153 -0.860135 -0.473891 -0.188665
-1.48401153 -1.27687347 -0.31819436 -0.747743 -0.644606 -0.159256
-0.14573792 -1.92897439 -0.43564472 -0.072946 -0.973030 -0.218839
1.66554821 -1.01402545 -0.39927012 0.837376 -0.508461 -0.200669
1.92176580 -0.30453771 -0.36678147 0.970792 -0.152206 -0.185461
1.21331787 1.41755223 -0.67239505 0.612011 0.715906 -0.336038
0.73703456 1.67995131 -0.75891221 0.370641 0.846062 -0.383152
-1.23152304 1.45854163 -0.54284036 -0.620955 0.735300 -0.271569
-1.69920528 -0.72444755 -0.72036970 -0.857123 -0.364239 -0.364239
-1.55508697 -0.98872524 -0.75443250 -0.780696 -0.496219 -0.379842
-0.72323978 -1.71138155 -0.68831748 -0.365041 -0.864085 -0.346558
-0.05730993 -1.90047824 -0.58783460 -0.028707 -0.954817 -0.295806
0.28705892 -1.84446526 -0.66373825 0.144446 -0.931335 -0.334290
1.69449019 -0.89219904 -0.54256719 0.852299 -0.446881 -0.271814
1.78939009 -0.55268472 -0.66810638 0.900491 -0.276505 -0.335651
1.86409652 -0.42649344 -0.55182892 0.936949 -0.213006 -0.277047
1.81059241 -0.29671088 -0.75978106 0.912195 -0.148038 -0.382079
0.57478476 1.67550576 -0.89631742 0.289291 0.843121 -0.453274
-0.63455427 1.64442945 -0.90825766 -0.318238 0.829301 -0.459329
-1.49367630 1.05362618 -0.77667993 -0.752542 0.530534 -0.390146
-1.41191471 1.06240344 -0.89842129 -0.712138 0.536179 -0.453179
-1.76732671 -0.23874582 -0.86473101 -0.891596 -0.120104 -0.436614
-0.07424629 -1.77696466 -0.88910258 -0.036280 -0.893569 -0.447457
0.60397035 -1.71432984 -0.80011147 0.302203 -0.863656 -0.403449
0.86446244 -1.56036544 -0.88715637 0.433016 -0.783320 -0.445990
0.96298015 -1.55020928 -0.79781020 0.482650 -0.778415 -0.401396
1.36136961 -1.09743297 -0.93682271 0.686364 -0.552765 -0.472606
1.72993541 -0.44808644 -0.88466644 0.867324 -0.223197 -0.444897
1.55841124 0.53108168 -1.11202526 0.784092 0.265554 -0.560964
1.47513628 0.73485327 -1.11044919 0.741823 0.370096 -0.559220
1.39522278 0.91089165 -1.08425009 0.700590 0.457630 -0.547492
-0.31534845 1.68361950 -1.01034892 -0.157969 0.845944 -0.509338
-0.39367697 1.59083390 -1.13377905 -0.196884 0.798218 -0.569284
-0.70967460 1.46472275 -1.13951707 -0.356308 0.737020 -0.574322
-1.52482188 0.73601127 -1.04048812 -0.767725 0.368443 -0.524260
-1.58334911 0.34499460 -1.15457308 -0.795510 0.174255 -0.580344
-1.57146597 -0.64671266 -1.02702248 -0.790752 -0.324288 -0.519181
-1.48518693 -0.77474421 -1.07338870 -0.746697 -0.387237 -0.540824
-1.25265229 -1.10857427 -1.07333219 -0.628932 -0.558114 -0.541252
-0.89756852 -1.37787831 -1.11726451 -0.451299 -0.691103 -0.564540
-0.15313174 -1.61933827 -1.13851464 -0.075918 -0.815047 -0.574400
0.26106086 -1.66024244 -1.05603147 0.133293 -0.836374 -0.531706
1.69298911 -0.13185385 -1.03248060 0.851391 -0.065923 -0.520372
1.40441775 0.10379431 -1.40980184 0.704686 0.052887 -0.707545
1.08608365 1.05593467 -1.29650378 0.544365 0.527511 -0.652226
0.33763584 1.50836897 -1.25616372 0.168968 0.756551 -0.631728
0.07046666 1.43890095 -1.37548447 0.035325 0.722037 -0.690952
-0.58089739 1.36267900 -1.32319725 -0.290835 0.686113 -0.666831
-1.26658380 -0.65907353 -1.39089751 -0.635851 -0.330122 -0.697648
-0.82249260 -1.33166230 -1.23586929 -0.410281 -0.666084 -0.622897
-0.55899459 -1.29395247 -1.40586436 -0.279953 -0.651092 -0.705483
-0.18458803 -1.52118385 -1.26452672 -0.091840 -0.765333 -0.637049
-0.02833010 -1.44140494 -1.37895477 -0.012524 -0.722192 -0.691579
0.46455815 -1.41943526 -1.31409431 0.233708 -0.713672 -0.660343
1.06499159 -1.04639375 -1.32242930 0.533369 -0.523273 -0.664608
1.44647706 -0.01395590 -1.37532902 0.724878 -0.006930 -0.688842
1.31231570 0.47248203 -1.42207038 0.658081 0.237160 -0.714622
1.12856352 0.79201865 -1.43598640 0.567309 0.396294 -0.721880
0.96859717 0.78344905 -1.55285811 0.487638 0.393675 -0.779249
0.87050676 1.04034579 -1.45562971 0.437456 0.523297 -0.731295
-1.21046984 0.11657324 -1.57943285 -0.607366 0.058319 -0.792279
-1.20793259 -0.08285099 -1.58555150 -0.607289 -0.043680 -0.793280
-1.01085758 -0.71538955 -1.55984998 -0.508211 -0.359781 -0.782483
-0.71866566 -1.03091693 -1.54400921 -0.360706 -0.519222 -0.774790
1.17353463 -0.53776306 -1.51338613 0.589963 -0.270466 -0.760784
1.36957848 -0.20016941 -1.43024659 0.687286 -0.098604 -0.719663
0.99053973 0.28736010 -1.70936430 0.498298 0.144667 -0.854851
0.53988296 0.97370583 -1.65471816 0.271302 0.488343 -0.829408
0.31201598 1.04110479 -1.67152143 0.155686 0.523403 -0.837741
0.02623739 1.10086012 -1.66235030 0.012277 0.552453 -0.833454
-0.01968529 1.01554966 -1.71992922 -0.012130 0.508101 -0.861212
0.00643722 -1.03134525 -1.71054041 0.004031 -0.517255 -0.855822
0.30627805 -0.98680556 -1.70681012 0.154065 -0.494476 -0.855428
0.97292852 -0.67863274 -1.60160434 0.489946 -0.339930 -0.802746
1.17864656 -0.03913295 -1.60924053 0.590788 -0.017987 -0.806626
0.71513897 0.31065029 -1.83743107 0.357424 0.155584 -0.920892
-0.72251534 0.35013467 -1.82652569 -0.362010 0.174617 -0.915673
-0.67753428 -0.66197854 -1.75738525 -0.340695 -0.331610 -0.879751
0.59303230 -0.74796331 -1.75046980 0.298330 -0.377078 -0.876819
0.71310323 -0.35159886 -1.83057213 0.358426 -0.177088 -0.916608
0.21829394 0.64301479 -1.87556517 0.111371 0.320694 -0.940613
0.27769911 -0.70494366 -1.84819233 0.139688 -0.352678 -0.925260
