//X Y Z Nx Ny Nz
205
-0.04432242 0.15078567 1.98966920 -0.022485 0.076022 0.996853
-0.26321310 0.23097706 1.96471035 -0.131337 0.116878 0.984424
0.08798476 -0.29717460 1.97297776 0.045058 -0.149037 0.987804
0.45524269 -0.17377637 1.93709183 0.227130 -0.086585 0.970008
0.43319350 0.58527189 1.85829759 0.218196 0.294212 0.930500
-0.61332095 -0.33601993 1.86953294 -0.307506 -0.169611 0.936308
-0.07661057 -0.57192630 1.90999949 -0.038792 -0.286558 0.957277
0.38315803 -0.55125463 1.87796664 0.191617 -0.277087 0.941544
0.59907639 -0.05230893 1.90186942 0.301087 -0.026236 0.953236
0.23266342 0.86993331 1.78108716 0.117022 0.435661 0.892471
-0.17197761 0.90370291 1.76837385 -0.084992 0.452826 0.887539
-0.26057366 0.89422560 1.76466584 -0.129912 0.449694 0.883684
-0.91568667 -0.29219279 1.74878502 -0.459124 -0.146282 0.876246
-0.76861554 -0.45194316 1.78504169 -0.387340 -0.225335 0.893975
-0.12720007 -0.78702605 1.82881963 -0.063114 -0.393458 0.917174
0.83656973 -0.16764069 1.80176187 0.419586 -0.083917 0.903829
1.17542863 0.17934556 1.59905660 0.590272 0.091369 0.802016
0.57088989 0.96431082 1.65041578 0.285044 0.484420 0.827096
-0.62646532 0.95315236 1.63358092 -0.313868 0.481054 0.818580
-0.79386604 0.63409060 1.71561909 -0.398504 0.318495 0.860091
-0.23978758 -1.03406119 1.68819833 -0.120346 -0.520531 0.845319
1.31659210 0.08768209 1.48970187 0.660979 0.044065 0.749110
1.24699390 0.43266654 1.48892963 0.627021 0.216268 0.748380
0.90748042 0.95259202 1.49730206 0.455226 0.478234 0.751041
0.77248180 1.10487759 1.46312809 0.388216 0.555297 0.735482
0.63303798 1.16398060 1.48894310 0.317516 0.585068 0.746243
0.04743869 1.30975986 1.50033998 0.023837 0.657622 0.752971
-0.02214211 1.36422062 1.45549977 -0.012545 0.684397 0.729001
-1.20745385 0.59476364 1.46637213 -0.607438 0.299712 0.735657
-1.22351813 0.09194489 1.57083333 -0.614915 0.043822 0.787374
-1.30337286 0.14308104 1.49489856 -0.656144 0.070662 0.751320
-1.33096707 -0.10731360 1.47482872 -0.669264 -0.055891 0.740920
-0.12486559 -1.25512123 1.53931725 -0.061491 -0.630637 0.773638
-0.02255831 -1.37230766 1.44835949 -0.009720 -0.687365 0.726247
0.35750961 -1.17779076 1.57092392 0.177948 -0.591640 0.786318
1.13171160 -0.79257554 1.43347728 0.568658 -0.397236 0.720300
1.20569563 0.87782729 1.31206536 0.605334 0.441910 0.662032
0.48861870 1.38246882 1.34278405 0.244300 0.695073 0.676159
-0.07320762 1.46009624 1.35090435 -0.038281 0.733013 0.679136
-1.50144029 0.40539441 1.25299764 -0.751476 0.202142 0.628030
-1.50679576 0.29808474 1.26389503 -0.758257 0.149239 0.634645
-1.51338363 -0.02152352 1.29790056 -0.759099 -0.012490 0.650855
-1.24734592 -0.69987500 1.39338112 -0.625234 -0.350980 0.697062
-0.05407489 -1.56677699 1.23213053 -0.026512 -0.785606 0.618159
0.81813198 -1.15105569 1.40371716 0.411511 -0.576776 0.705683
1.48351562 -0.09228220 1.32133615 0.746448 -0.044076 0.663983
0.54529983 1.60865867 1.03373611 0.273704 0.808600 0.520819
0.17718522 1.64784610 1.09111011 0.087532 0.830838 0.549587
-1.16379559 1.25901997 1.01496148 -0.584169 0.631307 0.510096
-1.51164830 -0.77728665 1.03501666 -0.759234 -0.390230 0.520851
-0.76024437 -1.46177888 1.11441004 -0.381231 -0.734646 0.561211
-0.56467247 -1.53060484 1.13139999 -0.284397 -0.770573 0.570383
0.69620919 -1.42296731 1.20552826 0.346803 -0.714772 0.607312
1.21093845 -1.21903169 1.01952922 0.605946 -0.609322 0.511425
1.55575991 -0.49173152 1.13845420 0.780890 -0.245691 0.574322
1.69393456 -0.12384084 1.03264451 0.852461 -0.060190 0.519315
1.82474816 0.09994245 0.78534704 0.918041 0.051965 0.393065
0.59376371 1.68352175 0.86631542 0.298254 0.848400 0.437335
0.08707738 1.77177131 0.89620805 0.041948 0.891737 0.450605
-0.43414125 1.73476005 0.87860572 -0.216650 0.871082 0.440771
-1.29390156 1.26340222 0.83965117 -0.649818 0.633199 0.420471
-1.51073277 0.97945929 0.84134823 -0.760451 0.492249 0.423563
-1.58670747 0.87210166 0.83140087 -0.797199 0.436446 0.417120
0.39511380 -1.71237493 0.93441737 0.198299 -0.860291 0.469656
1.74905515 -0.50348473 0.81314415 0.877304 -0.250444 0.409409
1.82613587 -0.12672611 0.77538294 0.918979 -0.062870 0.389262
1.91067266 0.11075154 0.53707606 0.960970 0.056676 0.270784
1.54997385 1.00818360 0.73128891 0.780672 0.505901 0.366900
0.59198940 1.75220323 0.72549760 0.296961 0.881838 0.366302
0.17230766 1.88858795 0.57826144 0.087049 0.952347 0.292330
-0.54910362 1.83198118 0.55526006 -0.275098 0.920353 0.277978
-1.31484044 1.36465132 0.61346239 -0.659689 0.685495 0.308070
-1.72297990 0.79095435 0.57948118 -0.870117 0.397724 0.291055
-1.80933464 -0.53606784 0.63225061 -0.909992 -0.267301 0.316963
-1.62943339 -0.90901273 0.70203894 -0.817025 -0.455313 0.353780
-1.44728649 -1.25835013 0.52084666 -0.728382 -0.633168 0.261836
0.36167991 -1.83708894 0.65652806 0.181322 -0.926290 0.330316
1.75595832 -0.67220420 0.62397885 0.886715 -0.338728 0.314641
1.96748269 0.02613713 0.32120967 0.986983 0.014765 0.160143
1.37916172 1.41350722 0.28607455 0.690755 0.708814 0.142967
0.57278466 1.85675669 0.41982260 0.286388 0.934603 0.210949
0.42869768 1.88064420 0.49133649 0.215370 0.945157 0.245549
0.25171912 1.92916346 0.36454895 0.126692 0.974653 0.184394
-0.62735426 1.82000756 0.48609072 -0.315348 0.917244 0.243350
-1.60848880 1.09521389 0.37819535 -0.812456 0.551255 0.189826
-1.81392622 0.66474247 0.44202933 -0.915545 0.334885 0.222778
-1.78660166 0.77246690 0.36100078 -0.902463 0.390060 0.182796
-1.91706777 0.18899792 0.46687153 -0.966859 0.095039 0.236963
-1.95226204 0.17146082 0.30154493 -0.984802 0.084753 0.151600
-1.86063623 -0.56708294 0.41271180 -0.935500 -0.285808 0.207734
-1.46325135 -1.24805212 0.49067789 -0.738047 -0.627890 0.247065
-1.51219249 -1.23704028 0.32778564 -0.763691 -0.624010 0.165492
0.19307502 -1.91554582 0.47182447 0.098029 -0.966288 0.238071
0.64467645 -1.85928893 0.26845479 0.323133 -0.936678 0.134980
1.79895389 0.80885941 0.17444584 0.908984 0.407192 0.089116
-0.80304325 1.81226087 0.01950769 -0.405761 0.913934 0.009075
-1.97039878 0.18615356 0.07771402 -0.994881 0.093442 0.038476
-1.26873517 -1.52225149 0.04384860 -0.638256 -0.769539 0.020949
0.10381512 -1.98113871 0.07924253 0.052183 -0.997860 0.039403
0.26097551 -1.95813191 0.11458065 0.132481 -0.989577 0.056449
1.01877940 -1.71121216 0.07848553 0.510038 -0.859228 0.039868
1.36649060 -1.44519448 0.06883270 0.688126 -0.724863 0.032499
1.44752800 -1.35742724 0.12525298 0.728368 -0.682396 0.061775
1.77728784 -0.86258751 0.16607580 0.896434 -0.435095 0.084256
1.82919407 -0.74664170 0.11091255 0.924241 -0.377918 0.054367
-0.87641174 1.77950549 -0.05313512 -0.441164 0.896990 -0.027989
-1.07837272 1.65731239 -0.17825732 -0.542816 0.834991 -0.090231
-1.51906431 1.27529824 -0.02127583 -0.765536 0.643272 -0.012504
-1.93895316 -0.34170109 -0.24504560 -0.977288 -0.172609 -0.122937
-1.49815166 -1.29696381 -0.07362652 -0.754389 -0.655314 -0.038215
-1.37369061 -1.44197392 -0.04070365 -0.688487 -0.724944 -0.021033
-0.63910854 -1.87796748 -0.05074888 -0.322947 -0.946043 -0.026596
-0.00050047 -1.98494482 -0.22869168 0.001083 -0.993508 -0.113760
0.38639590 -1.94750714 -0.02475891 0.196100 -0.980501 -0.012764
1.20455217 -1.55868244 -0.20034370 0.606952 -0.788306 -0.100915
1.74069834 -0.96791148 -0.06602696 0.873136 -0.486286 -0.034054
1.92852390 -0.47316718 -0.14010002 0.968636 -0.238107 -0.071058
1.97563803 -0.14752801 -0.07536347 0.996649 -0.072503 -0.037875
1.62577593 1.06215692 -0.41069424 0.819113 0.535398 -0.205922
0.40396455 1.90552950 -0.38259998 0.202643 0.960236 -0.192047
-0.01839418 1.95394742 -0.39438123 -0.010439 0.980079 -0.198335
-0.42391330 1.91302335 -0.33172125 -0.213492 0.962680 -0.166341
-0.61327946 1.82963192 -0.46831545 -0.307308 0.921923 -0.235841
-1.69431341 1.00717878 -0.30468532 -0.849262 0.504847 -0.154545
-1.75796759 0.83059239 -0.38235205 -0.888397 0.417122 -0.191730
-1.75581408 -0.82144356 -0.41019380 -0.886716 -0.413213 -0.207342
-1.08550322 -1.60110652 -0.43786886 -0.546413 -0.808076 -0.220104
-0.03837917 -1.93320405 -0.48543781 -0.018023 -0.969630 -0.243910
0.50687158 -1.91016734 -0.29117358 0.252744 -0.956722 -0.144236
1.63909733 -1.07736683 -0.31015262 0.826593 -0.540637 -0.156383
1.67275846 -0.98310965 -0.46569666 0.838057 -0.493064 -0.233557
1.91369891 -0.29419327 -0.41418323 0.966836 -0.148446 -0.207825
1.69824445 0.70518309 -0.74491227 0.856055 0.354496 -0.376169
1.58096635 1.02114856 -0.63477844 0.796412 0.513455 -0.319519
1.32282674 1.31338942 -0.71468031 0.664100 0.657541 -0.355826
-0.01286224 1.87503994 -0.68001169 -0.008809 0.940014 -0.341022
-0.45708138 1.80406833 -0.71680307 -0.228692 0.904572 -0.359790
-1.40630376 1.29312563 -0.55455291 -0.707084 0.649624 -0.279322
-1.88123810 0.13982932 -0.61251009 -0.948239 0.068751 -0.310026
-1.91263509 -0.11919793 -0.52801925 -0.962171 -0.061629 -0.265383
-1.70432305 -0.70506978 -0.72835416 -0.860639 -0.353836 -0.366197
-1.57764196 -1.07226515 -0.55015385 -0.795203 -0.540108 -0.275565
-1.40406632 -1.23808432 -0.65938699 -0.706151 -0.624984 -0.332784
-0.81561673 -1.66104662 -0.72145474 -0.409833 -0.836939 -0.362726
-0.15018812 -1.90325725 -0.54362649 -0.075313 -0.958649 -0.274447
0.35090554 -1.81089628 -0.73786736 0.175433 -0.911397 -0.372261
1.34650624 -1.30615258 -0.67195064 0.675460 -0.655928 -0.336916
1.35251272 -1.25873184 -0.74356759 0.679502 -0.633434 -0.370189
1.75780630 -0.66343158 -0.62888116 0.887412 -0.334844 -0.316826
1.59748495 0.81145811 -0.85850155 0.804960 0.406497 -0.432204
0.62579614 1.61954522 -0.96213412 0.314200 0.816287 -0.484720
-0.38070226 1.69929457 -0.96478915 -0.189786 0.853290 -0.485673
-1.53421080 -0.84975863 -0.94808692 -0.769506 -0.426414 -0.475427
-0.89283115 -1.57891178 -0.82990670 -0.447089 -0.792493 -0.414808
0.38562930 -1.68899107 -0.98436683 0.193286 -0.846565 -0.495952
0.55520672 -1.72098017 -0.82571208 0.278497 -0.865927 -0.415463
0.72406119 -1.59273386 -0.93588495 0.363698 -0.802700 -0.472648
0.83275056 1.46025717 -1.07464790 0.416514 0.732603 -0.538340
-0.97975677 1.33741868 -1.09019256 -0.491836 0.673127 -0.552266
-1.02055812 1.25304508 -1.15374303 -0.513585 0.631457 -0.580941
-1.26362705 1.16224992 -1.01086426 -0.635655 0.581700 -0.507512
-1.61044514 0.28297031 -1.12624156 -0.810995 0.140849 -0.567845
-0.38487831 -1.58941710 -1.13763344 -0.193609 -0.797305 -0.571682
-0.28468409 -1.56456852 -1.19456327 -0.141750 -0.786337 -0.601316
1.09795296 -1.23787451 -1.10078979 0.551683 -0.622541 -0.555057
1.64050221 -0.10834607 -1.11566472 0.825910 -0.052059 -0.561394
1.51894867 0.31340376 -1.24773765 0.762813 0.158605 -0.626866
0.93493462 1.09248435 -1.37538147 0.468706 0.548770 -0.692218
-0.77578455 1.27443445 -1.32078946 -0.388552 0.639871 -0.663018
-1.45799017 -0.14987087 -1.34179723 -0.733458 -0.076977 -0.675362
-1.35407960 -0.40797102 -1.40844536 -0.678229 -0.203313 -0.706165
-1.15940404 -0.96740896 -1.29158342 -0.583462 -0.485938 -0.650720
-0.09752640 -1.54925621 -1.24558616 -0.046811 -0.778766 -0.625566
-0.08831003 -1.52544582 -1.27412021 -0.043891 -0.765970 -0.641376
1.15937984 0.46383044 -1.54997993 0.584351 0.232182 -0.777577
0.63444000 1.13202834 -1.51458037 0.316613 0.567331 -0.760192
-0.74292141 0.97447968 -1.57055330 -0.372045 0.491229 -0.787576
-1.13928044 0.70471913 -1.47547436 -0.571420 0.353271 -0.740729
-1.21162188 0.18223685 -1.57084119 -0.608347 0.091470 -0.788383
-1.29388165 -0.13035335 -1.50469184 -0.651786 -0.067625 -0.755382
0.13248377 -1.38795471 -1.42194593 0.067802 -0.696771 -0.714082
0.43732405 -1.15822983 -1.55989206 0.221286 -0.583391 -0.781465
1.37846875 -0.12404488 -1.43123913 0.692670 -0.061923 -0.718591
-0.70457655 0.81557649 -1.67509270 -0.352634 0.409055 -0.841619
-1.09800375 0.43116200 -1.60536480 -0.551078 0.216440 -0.805895
-1.15458512 -0.25804141 -1.60606122 -0.578087 -0.128628 -0.805773
-1.00762415 -0.42995572 -1.66195023 -0.506543 -0.214482 -0.835112
-0.61115462 -0.90718901 -1.66443801 -0.307332 -0.457097 -0.834631
-0.00612832 -1.12507129 -1.64794171 -0.001360 -0.564391 -0.825507
1.17480707 -0.29532009 -1.58926988 0.588332 -0.148206 -0.794922
0.62369329 0.61288172 -1.79349816 0.313360 0.307420 -0.898498
0.39735243 0.88263345 -1.74395752 0.199719 0.442341 -0.874326
-0.50198776 0.76183659 -1.77256334 -0.251646 0.382680 -0.888949
-0.70803505 0.42441010 -1.81728470 -0.356225 0.212004 -0.910032
0.53034365 -0.60572702 -1.82558036 0.265432 -0.303143 -0.915232
0.97136444 -0.10050623 -1.73964715 0.488581 -0.048170 -0.871188
0.35085309 0.41824365 -1.92082989 0.175041 0.209259 -0.962066
-0.42099133 0.46002534 -1.89486182 -0.210697 0.229728 -0.950175
-0.48608932 -0.26427215 -1.91917980 -0.241342 -0.131760 -0.961454
0.17020853 -0.63066226 -1.88577294 0.085474 -0.314281 -0.945474
0.56142402 -0.00437566 -1.91679275 0.282560 -0.001213 -0.959249
0.03909721 0.40558794 -1.95311594 0.019978 0.203303 -0.978912
-0.10071728 0.44545966 -1.94357133 -0.049957 0.222977 -0.973543
-0.20168814 0.19449851 -1.97895861 -0.100972 0.098650 -0.989986
0.23150817 0.02258151 -1.98463130 0.117150 0.012043 -0.993041
