//X Y Z Nx Ny Nz
196
-0.33551499 0.32390448 1.94185245 -0.169041 0.161415 0.972302
-0.40902123 0.24691139 1.93955600 -0.204379 0.123135 0.971116
-0.39442354 0.17486818 1.94828129 -0.198206 0.087407 0.976255
-0.33855289 -0.07692084 1.96545959 -0.169001 -0.038462 0.984865
0.08050589 -0.45149681 1.94289970 0.039993 -0.226626 0.973160
-0.25028676 0.58487147 1.88976526 -0.126666 0.291998 0.947994
-0.43277854 0.50765628 1.87946689 -0.216606 0.255236 0.942304
-0.75363040 -0.02057785 1.85082340 -0.375561 -0.011536 0.926726
0.56257856 -0.45693117 1.85951424 0.283157 -0.229625 0.931179
0.71789211 0.35462362 1.82779574 0.361830 0.177367 0.915216
0.84094661 0.51954144 1.73603010 0.422819 0.259147 0.868370
0.15306707 0.93258023 1.75536084 0.076471 0.468561 0.880115
-0.81976944 0.48098677 1.75606120 -0.410646 0.240415 0.879529
-0.01181349 -0.91245508 1.77445614 -0.003953 -0.457196 0.889357
0.19373325 -0.94147372 1.74833488 0.097325 -0.472522 0.875929
0.41362509 -0.89929169 1.73320484 0.206975 -0.451175 0.868103
-0.40551585 0.90901160 1.72965384 -0.201238 0.457631 0.866070
-0.53131366 0.94552779 1.67447317 -0.267255 0.474261 0.838839
-1.11104274 0.17710859 1.64227462 -0.559512 0.087738 0.824165
0.05430636 -1.18279684 1.60513258 0.029243 -0.594607 0.803485
0.42898381 -1.01622450 1.65684593 0.214695 -0.510091 0.832895
0.97966170 -0.25962842 1.72280157 0.490909 -0.128882 0.861625
1.14457250 0.55434173 1.53144240 0.575669 0.277527 0.769145
0.87064439 0.98541701 1.49410224 0.435849 0.495058 0.751634
-0.01733933 1.33561528 1.48114049 -0.009711 0.670082 0.742223
-0.23391777 1.28113019 1.50391722 -0.117176 0.645208 0.754968
-1.26497829 0.17064138 1.52538776 -0.635957 0.085862 0.766933
-1.24208486 -0.40164173 1.50344324 -0.624700 -0.202064 0.754268
-0.85510659 -1.03276551 1.46924174 -0.429693 -0.518595 0.739204
-0.16596720 -1.30609143 1.48987210 -0.082978 -0.656543 0.749711
0.40622386 -1.16928065 1.56138861 0.204384 -0.588563 0.782190
0.97744942 -1.00415254 1.42344236 0.488001 -0.501325 0.714513
1.36794388 0.50795633 1.34970677 0.688495 0.254822 0.678999
0.85286283 1.23869741 1.29943156 0.428555 0.621989 0.655340
0.72379458 1.40058088 1.22003007 0.361612 0.701953 0.613595
0.14450365 1.43740261 1.36607838 0.070945 0.722485 0.687737
-0.22763482 1.39039636 1.40719914 -0.114115 0.698028 0.706920
-0.31329045 1.48646379 1.28479660 -0.155991 0.746638 0.646683
-1.40320337 -0.11103239 1.41009998 -0.704562 -0.055963 0.707432
-1.09695053 -1.04329085 1.29544067 -0.550051 -0.523137 0.650978
-0.45244765 -1.50816095 1.22514689 -0.225826 -0.755350 0.615182
1.48958111 -0.11109408 1.31159580 0.750255 -0.055733 0.658795
1.58794928 0.19057946 1.17811298 0.798111 0.097402 0.594585
1.66221035 0.43869951 1.01808584 0.831408 0.218149 0.511049
0.93786567 1.32623529 1.14208090 0.470174 0.667613 0.577260
-0.58784890 1.48875141 1.17638123 -0.295546 0.749248 0.592689
-1.52897477 0.66757935 1.07422733 -0.770289 0.336097 0.541936
-1.17780530 -1.22706234 1.04035926 -0.589491 -0.616516 0.521927
-0.85291183 -1.50019646 1.00730133 -0.425690 -0.751122 0.504583
1.27437603 -0.96804702 1.17645192 0.641001 -0.486219 0.593893
1.36345208 -0.89677739 1.13526833 0.686019 -0.449000 0.572517
1.58061337 -0.29117697 1.16927123 0.794971 -0.144676 0.589144
1.74579930 0.30748594 0.89003289 0.880377 0.155190 0.448166
-0.03626291 1.80171323 0.84905756 -0.019755 0.904791 0.425397
-1.26914787 1.30780041 0.80994469 -0.637890 0.654459 0.405930
-1.57379186 0.74405724 0.95602709 -0.792753 0.374668 0.480797
-1.15295255 -1.38082087 0.83613294 -0.581417 -0.697369 0.419084
1.19801962 -1.34974241 0.83044904 0.603284 -0.679733 0.417147
1.30019033 -1.14518285 0.97664154 0.653050 -0.575825 0.491886
1.78540134 0.62548584 0.59627563 0.900412 0.314922 0.300137
0.70566303 1.76399934 0.56385982 0.353968 0.891642 0.282279
-0.17371267 1.89548481 0.55739939 -0.089230 0.955662 0.280621
-1.73221338 -0.70515376 0.65169597 -0.874832 -0.354497 0.330154
-1.77491915 -0.69405228 0.54708576 -0.895860 -0.349133 0.274849
-1.29022110 -1.32430327 0.75310737 -0.647501 -0.663977 0.374002
-0.90653503 -1.63818729 0.68082553 -0.453278 -0.822849 0.342722
-0.79275107 -1.74347222 0.52118391 -0.398427 -0.879546 0.260105
1.70522928 -0.74957186 0.67526436 0.861176 -0.377438 0.340465
1.79523206 -0.50576818 0.70541722 0.900241 -0.251950 0.355087
1.76982927 0.75626385 0.47101650 0.892969 0.382279 0.237633
1.59411979 1.07319534 0.50396895 0.802143 0.540473 0.253882
1.26616347 1.46962166 0.40914327 0.639026 0.741146 0.205788
-0.88526070 1.73472571 0.38515174 -0.445234 0.874196 0.193773
-1.12858117 1.55313003 0.49789721 -0.568263 0.784297 0.248909
-1.28283501 1.44729328 0.44750565 -0.645247 0.729614 0.226540
-1.38064075 1.35780931 0.48420456 -0.692485 0.679866 0.241344
-1.79895473 0.71977615 0.40537477 -0.909782 0.361894 0.203295
-1.87733257 -0.41506514 0.51700801 -0.943599 -0.208005 0.257596
-1.08640206 -1.61374426 0.38425422 -0.547461 -0.814367 0.192597
-0.90103608 -1.71823049 0.43181545 -0.451444 -0.865392 0.217473
-0.45881635 -1.87434030 0.50309432 -0.229185 -0.940355 0.251410
1.00738418 -1.65342557 0.46853828 0.505061 -0.830510 0.234876
1.29364312 -1.46350145 0.34893784 0.652047 -0.737561 0.175610
1.90956676 -0.43701214 0.34043032 0.960566 -0.220047 0.169977
1.98387253 0.03547769 0.17479563 0.996021 0.018305 0.087219
1.75643361 0.92943752 0.06888540 0.883677 0.466874 0.033831
1.63932419 1.10827589 0.11773601 0.826958 0.559289 0.057760
0.51001674 1.92266738 0.15543339 0.254605 0.963953 0.077268
-0.84195435 1.78542662 0.17187376 -0.423851 0.901546 0.086979
-1.32504833 1.47728610 0.06527062 -0.667598 0.743814 0.032462
-1.97578287 -0.13784054 0.09261255 -0.996408 -0.070629 0.046724
-1.74009931 -0.93932438 0.24289034 -0.873940 -0.470583 0.121579
-1.43512428 -1.37632704 0.09963068 -0.720345 -0.691817 0.049925
-1.04408312 -1.68931150 0.10881765 -0.523554 -0.850251 0.054450
-0.83749926 -1.79641533 0.04187686 -0.423236 -0.905804 0.019777
0.08067328 -1.97439277 0.22864957 0.041492 -0.992440 0.115504
0.78359854 -1.80432010 0.24691582 0.394574 -0.910447 0.124088
1.73676670 -0.95693964 0.18653733 0.872483 -0.479371 0.094743
1.90777373 -0.54175836 0.20027748 0.957241 -0.271456 0.100010
1.95765591 -0.21176094 0.22069648 0.987930 -0.107153 0.111863
1.73360252 0.97752148 -0.11031596 0.869472 0.490720 -0.056675
1.14122534 1.61892903 -0.05806215 0.577038 0.816195 -0.029199
0.75620759 1.82888007 -0.05904320 0.382679 0.923393 -0.030040
0.39441276 1.93532002 -0.19459671 0.197558 0.975365 -0.098158
-0.19100338 1.96234179 -0.19089909 -0.098244 0.990528 -0.095932
-1.10618758 1.63620090 -0.17542818 -0.556065 0.826195 -0.090522
-1.44073701 1.36587131 -0.12905566 -0.724087 0.686659 -0.064779
-1.96914804 0.12932055 -0.21095386 -0.992284 0.064788 -0.105707
-1.95525122 -0.32094380 -0.03807839 -0.986362 -0.163441 -0.019430
-1.11410689 -1.62562406 -0.23037061 -0.560064 -0.820355 -0.115522
-0.63289404 -1.87882602 -0.07513966 -0.319801 -0.946661 -0.039497
-0.11641300 -1.98429978 -0.00570996 -0.056902 -0.998375 -0.003104
1.03076911 -1.70513344 -0.04037803 0.515989 -0.856352 -0.020422
1.16211462 -1.59217787 -0.18896610 0.586150 -0.804320 -0.097449
1.72760642 -0.98189932 -0.16978388 0.866501 -0.491722 -0.085946
1.77624440 0.76431304 -0.42534396 0.897455 0.385042 -0.215214
1.40639150 1.34054184 -0.43391442 0.707216 0.672870 -0.217005
1.26021457 1.50836945 -0.27162865 0.634974 0.760475 -0.135959
0.42697841 1.89427531 -0.42394644 0.214439 0.953510 -0.211741
-1.56128621 1.17012453 -0.33684710 -0.789456 0.589441 -0.171226
-1.80156827 0.70017695 -0.43116331 -0.909907 0.354415 -0.215542
-1.95392811 -0.08826897 -0.34823099 -0.983488 -0.045826 -0.175077
1.93391788 -0.15377794 -0.40547141 0.975711 -0.077321 -0.204961
1.82267201 0.47454983 -0.65522373 0.914187 0.238295 -0.327837
1.70497668 0.78093541 -0.64029545 0.861339 0.392919 -0.322039
1.45754051 1.19986916 -0.60245657 0.736376 0.604823 -0.303214
0.50489467 1.83468902 -0.59809554 0.251237 0.920245 -0.300049
-0.21891792 1.85748899 -0.65179938 -0.111740 0.938345 -0.327142
-0.75160825 1.72169280 -0.62775445 -0.377719 0.870129 -0.316550
-1.75819278 0.74828655 -0.53133351 -0.886261 0.378118 -0.267522
-1.71195459 -0.77840859 -0.62401283 -0.864601 -0.391604 -0.314819
-1.54577363 -1.02022004 -0.71941841 -0.779029 -0.511288 -0.362902
-1.20958161 -1.38168406 -0.76370549 -0.607142 -0.695992 -0.383372
-0.04743212 -1.86185288 -0.70545185 -0.021742 -0.934893 -0.354262
1.90957463 -0.16415483 -0.51959902 0.961744 -0.082799 -0.261136
1.72763515 0.16064969 -0.96606630 0.869290 0.082856 -0.487308
1.57852554 0.94499332 -0.77425838 0.791307 0.472206 -0.388401
0.55816668 1.64997113 -0.95757478 0.281451 0.828805 -0.483599
0.46506611 1.75737834 -0.82448471 0.231051 0.880976 -0.412911
0.12359554 1.73040962 -0.97033226 0.062418 0.869691 -0.489635
-0.11112968 1.77295911 -0.88737875 -0.055917 0.893300 -0.445968
-0.98147017 1.53043664 -0.80687231 -0.493130 0.769804 -0.405246
-1.43526030 0.99820220 -0.94047642 -0.722736 0.503423 -0.473517
-1.42401409 -1.08473802 -0.85097957 -0.719164 -0.547226 -0.428192
-0.76855677 -1.65624750 -0.78104240 -0.386478 -0.834477 -0.392788
0.77222443 -1.58120573 -0.91997129 0.387589 -0.796084 -0.464785
1.73064244 -0.27327153 -0.92990208 0.872629 -0.137024 -0.468768
0.24762164 1.63562596 -1.09552073 0.124473 0.824451 -0.552075
-1.42418134 0.76670581 -1.16311157 -0.714207 0.382552 -0.586142
-1.12515163 -1.13537121 -1.19855237 -0.563566 -0.566951 -0.600799
-0.87526530 -1.46857166 -1.02914727 -0.437900 -0.735342 -0.517218
-0.73985541 -1.52327657 -1.04042268 -0.371243 -0.766804 -0.523632
-0.36803535 -1.57716990 -1.15928102 -0.183932 -0.791970 -0.582197
0.66422820 -1.56973028 -1.01932514 0.333921 -0.790865 -0.512864
0.92302614 -1.44139063 -1.01780939 0.462253 -0.724031 -0.511958
1.68020105 -0.01173141 -1.07528722 0.842093 -0.004055 -0.539318
1.42687404 0.45683587 -1.30958891 0.715725 0.230222 -0.659344
0.71267211 1.31507826 -1.31577814 0.358689 0.660054 -0.660054
0.34476721 1.50278592 -1.26145935 0.172320 0.754851 -0.632855
0.07741100 1.44522464 -1.36723125 0.038217 0.726129 -0.686496
-0.61217356 1.40438378 -1.26511717 -0.307734 0.707304 -0.636413
-1.44652426 -0.00779558 -1.37619996 -0.724889 -0.004158 -0.688853
-1.48113155 -0.27021351 -1.29734361 -0.745441 -0.136489 -0.652448
-0.26980770 -1.41430080 -1.37361026 -0.133541 -0.709718 -0.691713
1.29154325 -0.55769300 -1.40899718 0.647773 -0.279902 -0.708552
1.27231848 0.14808673 -1.52155471 0.640289 0.073713 -0.764589
1.03322601 0.73273158 -1.53481472 0.519299 0.367230 -0.771668
0.01122371 1.28416979 -1.52696300 0.004136 0.643833 -0.765155
-0.70910132 0.99960852 -1.57113028 -0.354844 0.502562 -0.788364
-1.19617462 0.32254022 -1.56773722 -0.599578 0.161599 -0.783831
-1.05755627 -0.77644175 -1.49420381 -0.531839 -0.391107 -0.751121
1.03853858 0.57884735 -1.60430121 0.521968 0.288581 -0.802664
0.58312517 0.99783814 -1.62746990 0.290575 0.501046 -0.815181
-0.86328030 0.59142113 -1.69601107 -0.433690 0.297873 -0.850403
-1.11477244 -0.16567411 -1.64078856 -0.560297 -0.084546 -0.823966
-1.03987944 -0.24759328 -1.68362427 -0.522907 -0.123808 -0.843351
-0.45314360 -1.05127120 -1.62879336 -0.225561 -0.529378 -0.817851
0.06398311 -1.11090183 -1.65232015 0.031915 -0.559212 -0.828410
0.77519315 -0.87202895 -1.61593688 0.388255 -0.439383 -0.810062
1.07610261 -0.26874915 -1.65755951 0.539826 -0.133853 -0.831067
0.75035757 0.34843045 -1.81405544 0.375689 0.175702 -0.909938
0.53211033 0.79578847 -1.75004447 0.266401 0.398849 -0.877468
0.35320950 0.89473814 -1.74679744 0.177386 0.450062 -0.875202
0.30510303 0.81895936 -1.79077756 0.152762 0.412600 -0.898012
0.88553053 -0.41645837 -1.73898935 0.445255 -0.206991 -0.871150
0.79287785 -0.19764884 -1.82136011 0.397565 -0.100423 -0.912062
0.87105411 -0.08885697 -1.78987098 0.437593 -0.044432 -0.898075
0.57487166 0.22047614 -1.89683437 0.288886 0.109487 -0.951082
-0.47001791 0.57458735 -1.85352468 -0.236618 0.287626 -0.928053
-0.35715190 -0.59425020 -1.87170827 -0.178223 -0.297038 -0.938086
0.18522498 -0.52646983 -1.91676366 0.091275 -0.263542 -0.960320
0.69689333 -0.25039074 -1.85431683 0.349730 -0.124806 -0.928500
0.19247921 0.31078136 -1.96184087 0.097695 0.155588 -0.982979
0.07084975 0.41383594 -1.95064390 0.034526 0.208347 -0.977445
-0.30027843 -0.21930677 -1.96023607 -0.151765 -0.110485 -0.982222
0.06556395 0.21593551 -1.98515272 0.034407 0.109879 -0.993349
