//X Y Z Nx Ny Nz
202
-0.10551490 0.03982476 1.99254799 -0.053428 0.019905 0.998373
0.23174465 -0.45690906 1.93233228 0.116548 -0.226693 0.966968
-0.53577876 -0.43582532 1.87119293 -0.268984 -0.218811 0.937960
-0.01758833 -0.56114727 1.91629624 -0.008534 -0.281628 0.959486
0.40156570 -0.34503469 1.92657292 0.200164 -0.173999 0.964188
0.61576003 -0.18904582 1.88801861 0.306927 -0.093527 0.947127
-0.08026788 0.91791654 1.76731861 -0.042096 0.460345 0.886741
-0.72057241 0.64480525 1.74560189 -0.361477 0.324872 0.873952
-0.84654087 0.48495209 1.74386907 -0.424918 0.241738 0.872358
-0.95637554 0.21236801 1.73977625 -0.479009 0.106604 0.871313
-0.46888232 -0.79960996 1.76768160 -0.232881 -0.401978 0.885539
-0.12070822 -0.80783534 1.81897902 -0.060477 -0.404522 0.912526
0.29774597 -0.79817408 1.80172944 0.148957 -0.401476 0.903675
0.58941227 -0.49412960 1.84298396 0.296076 -0.247445 0.922556
1.17277312 0.22043502 1.59721649 0.587654 0.109910 0.801613
0.92535233 0.45464271 1.70680928 0.463590 0.228020 0.856207
-0.40518552 0.97917306 1.68605351 -0.203031 0.491786 0.846714
-1.14329422 -0.07062676 1.63009179 -0.573207 -0.034867 0.818668
-0.98821038 -0.38622195 1.68531740 -0.497213 -0.193778 0.845712
-0.74642593 -0.85472935 1.63698900 -0.376191 -0.430159 0.820636
-0.62539703 -1.00945985 1.60391307 -0.311914 -0.508246 0.802743
0.09963495 -1.19313669 1.59423637 0.052351 -0.598498 0.799412
0.75525862 -0.93108141 1.59254158 0.377798 -0.467827 0.799003
1.35280991 0.09026134 1.45764184 0.678772 0.046959 0.732846
1.22247565 0.65077662 1.43513596 0.613154 0.325182 0.719930
0.67132103 1.02692747 1.57230294 0.335059 0.517818 0.787147
0.87466121 1.04939711 1.44704092 0.437752 0.526955 0.728486
0.36406660 1.18289733 1.56453121 0.184269 0.592402 0.784286
-0.53101385 1.12306035 1.55691886 -0.265738 0.564497 0.781490
-0.79701912 1.12446475 1.43616998 -0.399804 0.564332 0.722279
-0.79425496 -0.96241945 1.55137467 -0.397032 -0.484541 0.779478
0.10917843 -1.32936227 1.47602081 0.055773 -0.667844 0.742208
0.17681351 -1.35097647 1.44925690 0.089077 -0.679033 0.728683
1.39917243 0.37382638 1.37524557 0.700851 0.186380 0.688528
0.96930259 1.13656449 1.31109786 0.488121 0.571991 0.659215
-0.19148861 1.47955382 1.31096089 -0.098260 0.743550 0.661422
-1.42689180 -0.36274141 1.34530187 -0.716370 -0.182544 0.673418
-1.40294421 -0.68950975 1.23260880 -0.703405 -0.344358 0.621803
1.62593663 0.01108294 1.15662742 0.815008 0.006849 0.579409
1.59570765 0.38423330 1.12834573 0.799797 0.193475 0.568237
1.60081637 0.59764165 1.01443684 0.806019 0.301271 0.509480
0.58410275 1.51308274 1.14461255 0.294734 0.763123 0.575130
0.26129898 1.60049593 1.14540148 0.131534 0.805463 0.577865
-1.68248951 -0.03488837 1.06729960 -0.843303 -0.017768 0.537144
-1.48848808 -0.66617364 1.13150287 -0.749286 -0.334994 0.571270
-1.32831335 -0.95399535 1.12477005 -0.668265 -0.480682 0.567774
-0.84320366 -1.39811289 1.14298999 -0.422448 -0.700766 0.574860
0.67005956 -1.48451757 1.13479543 0.338054 -0.745659 0.574206
1.48308706 -0.80378008 1.05954444 0.743864 -0.402311 0.533678
1.45075154 1.03013325 0.87558228 0.732750 0.517722 0.441635
1.16614163 1.31370807 0.92861152 0.587398 0.661032 0.466906
0.40687367 1.68803251 0.98063940 0.203549 0.845860 0.493041
-1.12471795 1.35829914 0.90783238 -0.565419 0.685508 0.458673
-1.41024363 -1.16027164 0.77927721 -0.710526 -0.585236 0.390707
-0.87738115 -1.55266964 0.89158696 -0.437861 -0.779685 0.447627
0.38104790 -1.75500274 0.85173184 0.192271 -0.882098 0.430041
0.57845569 -1.71576881 0.81736273 0.289129 -0.864328 0.411512
1.56994689 -0.89196742 0.84752315 0.787986 -0.444961 0.425545
1.78407645 -0.21787080 0.83633858 0.900927 -0.107552 0.420432
1.65821743 0.81667691 0.72801548 0.835035 0.410441 0.366409
1.64117539 0.91153568 0.66693652 0.824446 0.455574 0.335769
1.59712017 0.97284234 0.68407661 0.803122 0.486983 0.343283
-0.05937001 1.90690291 0.56810910 -0.031142 0.957943 0.285265
-0.73079789 1.70095766 0.70833820 -0.366768 0.858887 0.357483
-1.52478135 1.04828680 0.71813554 -0.769561 0.526542 0.361289
-1.45462286 1.20066881 0.60788816 -0.734181 0.605659 0.306846
-0.45374554 -1.83186054 0.63622355 -0.227501 -0.920019 0.319074
1.19347739 -1.41853905 0.70595700 0.601796 -0.715958 0.353902
1.68927824 -0.85107207 0.60363913 0.851084 -0.427859 0.304290
0.14869437 1.94752109 0.34044769 0.073174 0.982456 0.171540
-1.16408765 1.56531692 0.33926782 -0.586050 0.792000 0.171120
-1.91077411 0.46761402 0.31410685 -0.959558 0.233620 0.157067
-1.89081240 -0.39202279 0.46449119 -0.952373 -0.195878 0.233703
-1.77833200 -0.74229091 0.45829734 -0.898519 -0.373772 0.230126
-1.69011652 -0.94309789 0.48190138 -0.849043 -0.471013 0.239317
-1.45320141 -1.27526951 0.44709080 -0.732538 -0.641947 0.226478
1.26730990 -1.49001920 0.32354668 0.639263 -0.751628 0.162473
1.48814809 -1.26518703 0.33762768 0.751005 -0.638278 0.169090
1.12731647 1.62971401 0.05668817 0.569401 0.821545 0.029093
0.57065314 1.90830350 0.02258611 0.288118 0.957531 0.011034
-1.39102840 1.42921281 0.03407747 -0.697176 0.716736 0.015369
-1.59828699 1.16581321 0.07973377 -0.807518 0.588435 0.040727
-1.92503560 0.46902198 0.20164636 -0.966626 0.235607 0.100611
-1.56504083 -1.19176388 0.24251820 -0.789877 -0.600897 0.122542
1.07077003 -1.65756679 0.24637465 0.536493 -0.834707 0.124256
1.28137815 -1.50462997 0.14054130 0.646910 -0.759291 0.070598
1.40731871 -1.39997315 0.21758384 0.705922 -0.700002 0.108034
1.98337138 -0.02328398 0.20693588 0.994652 -0.009741 0.102820
1.96374249 0.26589078 -0.01910563 0.990895 0.134265 -0.009987
1.84704244 0.67841184 -0.25896350 0.930865 0.341363 -0.130239
0.40437797 1.93439829 -0.18864328 0.202376 0.974631 -0.095601
-0.65556920 1.86739516 -0.10412089 -0.330519 0.942302 -0.053142
-1.16709912 1.59340382 -0.12730332 -0.588798 0.805498 -0.067006
-1.75316846 0.91098607 -0.22396587 -0.881289 0.458384 -0.114951
-1.92842174 0.49637151 -0.09504730 -0.967470 0.248354 -0.048188
-1.73347712 -0.96973866 -0.15793002 -0.870172 -0.486231 -0.079871
-1.63594782 -1.11938632 -0.05487295 -0.825025 -0.564345 -0.029119
-1.60664058 -1.13954258 -0.22385186 -0.809925 -0.575589 -0.112774
-0.67895788 -1.85518205 -0.14002332 -0.341373 -0.937128 -0.072492
0.36494499 -1.94137728 -0.16137135 0.183748 -0.979586 -0.081531
0.69494903 -1.84818435 -0.14534022 0.351786 -0.933229 -0.073012
1.24810088 -1.54164767 -0.00034854 0.630540 -0.776155 -0.001374
0.87599784 1.73736811 -0.39074668 0.441457 0.875532 -0.196367
0.84330618 1.73798931 -0.45127448 0.425518 0.876417 -0.225450
0.26714516 1.89798093 -0.51110470 0.132992 0.957279 -0.256767
-0.51585931 1.91005480 -0.28059724 -0.257882 0.956146 -0.138859
-0.97930336 1.68020403 -0.44749391 -0.490316 0.842494 -0.223147
-1.65710807 1.03784072 -0.35970896 -0.833786 0.521304 -0.181780
-1.91562235 0.46992713 -0.28820190 -0.961308 0.234115 -0.145177
-1.64506090 -1.06930268 -0.31105548 -0.828859 -0.537196 -0.156248
-1.49521089 -1.20222306 -0.50357610 -0.753992 -0.606027 -0.253430
-0.98973066 -1.67884970 -0.42075479 -0.494944 -0.843070 -0.210389
1.00687575 -1.70367217 -0.26797286 0.502038 -0.854192 -0.135332
1.84500694 -0.58117640 -0.45858273 0.927756 -0.293199 -0.230877
1.88221502 0.06529348 -0.63853967 0.946332 0.034297 -0.321372
1.47944009 1.20605659 -0.53964043 0.746800 0.607271 -0.271131
1.39294636 1.21968520 -0.71888155 0.701953 0.613595 -0.361612
-0.69092846 1.77753651 -0.54345310 -0.348205 0.896444 -0.274119
-0.97193778 1.63135493 -0.60501087 -0.486044 0.819512 -0.303581
-1.77592468 0.58394241 -0.66952884 -0.894390 0.293169 -0.337814
-1.85707653 0.40822634 -0.57959378 -0.934180 0.205268 -0.291844
-1.77989268 -0.52015907 -0.73116267 -0.893109 -0.260057 -0.367051
-1.71578586 -0.76106960 -0.63321149 -0.865747 -0.384606 -0.320250
0.28903252 -1.87846124 -0.56282401 0.146520 -0.947674 -0.283630
0.46580511 -1.86406040 -0.53668875 0.234017 -0.934666 -0.267648
0.96799546 -1.61970448 -0.63960540 0.484996 -0.813592 -0.320698
1.80181324 -0.54815191 -0.63915747 0.906159 -0.274638 -0.321635
1.78559482 0.14977153 -0.85143983 0.899696 0.075547 -0.429931
1.75605118 0.33941346 -0.86072040 0.884589 0.169946 -0.434305
1.65978742 0.48446563 -0.99671161 0.831860 0.241408 -0.499731
0.36790562 1.70043266 -0.96589744 0.183279 0.853811 -0.487253
-1.56646693 0.91790313 -0.82755530 -0.785367 0.458265 -0.416163
-1.78692830 -0.11970294 -0.85676301 -0.899978 -0.061269 -0.431608
-1.40444541 -1.12926674 -0.82728988 -0.709050 -0.570215 -0.414852
-1.04939365 -1.47678626 -0.80935621 -0.527542 -0.744475 -0.409215
0.85277206 -1.60976779 -0.80295521 0.427365 -0.808313 -0.404957
1.43074977 -1.11633921 -0.80070317 0.722662 -0.561339 -0.403308
1.79555559 -0.32417881 -0.78468072 0.904113 -0.161398 -0.395639
1.59757590 0.09188837 -1.18315101 0.803010 0.046572 -0.594143
-0.40833667 1.63828659 -1.05987263 -0.205742 0.821445 -0.531882
-1.59252858 0.59156972 -1.02950263 -0.800626 0.298458 -0.519539
-1.62993932 0.20900181 -1.11164069 -0.820373 0.105995 -0.561919
-1.66551054 -0.41073850 -1.01865602 -0.835045 -0.204594 -0.510726
-1.42845011 -0.81349981 -1.13012695 -0.715583 -0.408196 -0.566848
-1.22773147 -1.13687491 -1.07717037 -0.617108 -0.569768 -0.542717
-1.14303958 -1.23371708 -1.06433702 -0.572934 -0.620255 -0.535752
-0.80071604 -1.45015645 -1.10723972 -0.399371 -0.728072 -0.557148
0.12282633 -1.62124515 -1.14163160 0.063852 -0.815890 -0.574670
0.74222875 -1.53053021 -1.02893555 0.371572 -0.770727 -0.517604
1.35509670 -0.89957565 -1.14270306 0.681906 -0.451825 -0.575202
1.52356005 -0.80660796 -1.00146651 0.764396 -0.402571 -0.503621
1.64462566 -0.09990114 -1.11115730 0.826919 -0.049138 -0.560171
1.36695778 0.55605060 -1.32958674 0.688436 0.279527 -0.669268
1.13120091 1.02047968 -1.28016019 0.566981 0.513143 -0.644373
0.63663179 1.35916555 -1.30240011 0.319545 0.682885 -0.656932
0.36777467 1.51465857 -1.24446726 0.185106 0.760310 -0.622628
-0.48475122 1.43753076 -1.28597879 -0.243973 0.722475 -0.646922
-0.62353104 1.31949198 -1.35032213 -0.311692 0.663758 -0.679907
-0.83711338 1.24227905 -1.30719030 -0.421281 0.624429 -0.657732
-1.27659988 0.91293997 -1.22278428 -0.640670 0.456665 -0.617251
-1.10274303 0.88213706 -1.40298724 -0.552852 0.443278 -0.705592
-1.38167346 -0.74127150 -1.23242855 -0.692124 -0.369900 -0.619788
-0.76985931 -1.34592056 -1.25783598 -0.383954 -0.673979 -0.631135
0.77307701 -1.19911623 -1.39140928 0.387713 -0.602193 -0.697884
1.19173634 -1.01922286 -1.22580445 0.597908 -0.510327 -0.618119
1.33622956 0.34374043 -1.44291699 0.670078 0.172480 -0.721974
1.26788163 0.35496700 -1.49816132 0.636913 0.178702 -0.749938
1.18156254 0.37695622 -1.56125879 0.591500 0.187996 -0.784082
0.38591698 1.25481057 -1.49836648 0.192415 0.629583 -0.752729
-0.47129804 1.27523768 -1.45277143 -0.236892 0.641647 -0.729501
-1.20649338 0.60667920 -1.46312368 -0.606254 0.303931 -0.734902
-1.21112752 -0.36616719 -1.54075015 -0.607347 -0.185111 -0.772570
-0.88863009 -1.05829811 -1.43327260 -0.445480 -0.531595 -0.720385
-0.51987982 -1.11491537 -1.56734383 -0.259057 -0.560504 -0.786590
-0.30330306 -1.31499362 -1.46620893 -0.152551 -0.660049 -0.735570
1.21076727 -0.22823307 -1.56628025 0.608547 -0.113458 -0.785365
0.93527126 0.40892023 -1.71242547 0.471505 0.205067 -0.857689
0.72962075 0.94034356 -1.59810781 0.366474 0.472095 -0.801762
0.57730728 0.81568575 -1.72724926 0.288366 0.410426 -0.865099
0.12556022 1.00621104 -1.71685553 0.062737 0.506082 -0.860200
-0.02135949 1.20609808 -1.59246159 -0.012433 0.603705 -0.797111
-0.83410823 0.68945825 -1.67138684 -0.421432 0.346232 -0.838164
-1.09055209 0.36605927 -1.62679505 -0.549162 0.183054 -0.815422
-0.61442298 -0.94470280 -1.64303946 -0.309082 -0.475390 -0.823695
0.28550223 -1.06785381 -1.66159749 0.142956 -0.534980 -0.832682
0.85806972 -0.58382565 -1.70191336 0.432948 -0.294281 -0.852030
1.01361096 -0.55962223 -1.62478065 0.509415 -0.280570 -0.813497
0.53770781 0.76718152 -1.75963819 0.269041 0.386277 -0.882274
-0.34242025 0.82563782 -1.78060532 -0.171817 0.414382 -0.893737
-0.33144733 0.75358206 -1.81580639 -0.166152 0.379168 -0.910288
-0.49385110 0.66928720 -1.81154847 -0.249235 0.336686 -0.908033
-0.81151569 -0.09997652 -1.81851017 -0.405021 -0.049458 -0.912969
-0.36439365 -0.78705680 -1.79415226 -0.183331 -0.396977 -0.899333
0.64049697 -0.71979052 -1.74721491 0.321281 -0.360870 -0.875529
0.56342691 0.28121933 -1.89249575 0.282408 0.140535 -0.948945
-0.04830540 0.75543410 -1.84897208 -0.024665 0.377759 -0.925575
-0.15827593 0.56931692 -1.90674126 -0.078643 0.284920 -0.955320
-0.26151654 -0.45492899 -1.92939746 -0.130517 -0.226144 -0.965310
0.40236643 -0.50170100 -1.88742340 0.200909 -0.250111 -0.947143
-0.26237294 0.04040224 -1.98156905 -0.132939 0.021226 -0.990897
-0.32268888 -0.16839866 -1.96207452 -0.162049 -0.085226 -0.983096
0.09775549 -0.29733500 -1.97219777 0.049896 -0.149688 -0.987474
