//X Y Z Nx Ny Nz
207
-0.11877239 0.42966077 1.94605672 -0.059768 0.215897 0.974585
-0.40109408 0.59419262 1.86256492 -0.200101 0.298053 0.933340
-0.68301475 -0.05042513 1.87346029 -0.340494 -0.026780 0.939865
-0.49624655 -0.38702402 1.89210272 -0.249090 -0.194644 0.948719
0.37901056 0.68496966 1.83828282 0.188479 0.344364 0.919722
-0.07705812 0.92865306 1.76223230 -0.039381 0.465777 0.884025
-0.67834449 0.64199525 1.76311648 -0.339889 0.321761 0.883711
-0.70814174 0.68058419 1.73967338 -0.356243 0.340953 0.869967
0.11643180 -0.75011188 1.84772277 0.059713 -0.375527 0.924886
0.66252011 -0.63393116 1.77180278 0.332174 -0.317143 0.888302
0.93648541 -0.29443032 1.73880124 0.469483 -0.146804 0.870651
0.90285224 0.44616681 1.72300470 0.452018 0.223756 0.863489
-0.32401943 -1.15041316 1.60036528 -0.163829 -0.575657 0.801111
0.56117070 -0.98052806 1.64498007 0.279174 -0.491285 0.825046
1.00071347 -0.53906268 1.63811362 0.503223 -0.269528 0.821049
1.08836734 -0.02479786 1.67082417 0.546144 -0.012258 0.837602
1.33864319 0.15093075 1.46306098 0.673925 0.076813 0.734796
0.61661047 1.08586836 1.55833817 0.308002 0.544191 0.780379
0.30032876 1.31625414 1.46544707 0.149599 0.660351 0.735906
0.15371500 1.34356785 1.45842075 0.076977 0.675362 0.733458
-1.08750200 -0.72479969 1.50099730 -0.547723 -0.365690 0.752509
-0.85102731 -0.98860508 1.50242817 -0.427667 -0.496487 0.755381
-0.23513088 -1.23223460 1.54665744 -0.116806 -0.619517 0.776244
0.12640209 -1.31005144 1.49096739 0.064673 -0.659666 0.748771
1.28822899 -0.07065146 1.51654196 0.646551 -0.035215 0.762057
0.29334253 1.50068998 1.27156925 0.146061 0.754399 0.639959
-0.86332613 1.23989058 1.29101694 -0.432213 0.622453 0.652491
-1.43020105 -0.46489137 1.30250823 -0.718160 -0.234149 0.655302
-1.28028095 -0.80979127 1.29164517 -0.642617 -0.406825 0.649259
-0.89635289 -1.08074641 1.41310477 -0.450794 -0.540620 0.710292
0.07825477 -1.44721973 1.36482954 0.041123 -0.727459 0.684918
0.79056662 -1.26976335 1.31470191 0.395841 -0.637652 0.660840
1.17349184 -0.95499724 1.28741908 0.588824 -0.481460 0.649216
1.51012564 -0.27775124 1.26315069 0.758898 -0.139206 0.636157
1.65629458 0.36699641 1.04106712 0.831096 0.184855 0.524507
1.03352427 1.26761031 1.12438488 0.520309 0.638178 0.567457
-0.04122147 1.71715498 1.01417124 -0.023100 0.860128 0.509555
-1.36760056 0.89113021 1.13548970 -0.687780 0.447973 0.571208
-1.59559929 0.57544690 1.03453386 -0.802664 0.288581 0.521968
-1.66030312 0.02394132 1.10266101 -0.833478 0.009549 0.552469
-1.18077290 -1.11103737 1.15715003 -0.592903 -0.555741 0.582768
-1.10953510 -1.31205881 1.00130510 -0.555843 -0.659958 0.505464
0.28782785 -1.58716893 1.16011977 0.144838 -0.798850 0.583833
0.59528297 -1.48156393 1.18211055 0.299316 -0.744288 0.597031
1.41124129 -0.93714535 1.04094124 0.710048 -0.470594 0.523806
1.70210767 0.55697459 0.85999030 0.856401 0.280360 0.433562
0.66142583 1.58870983 0.99251360 0.333536 0.799529 0.499506
0.04779416 1.73890400 0.97334385 0.022993 0.872391 0.488268
-1.68081677 0.48139077 0.95938110 -0.842745 0.240129 0.481787
-1.73501110 -0.25678015 0.92544597 -0.874665 -0.130697 0.466775
-1.57176554 -0.83858275 0.88587058 -0.791363 -0.419147 0.445040
-0.09206405 -1.78100598 0.87615079 -0.044487 -0.896488 0.440829
0.10460231 -1.76390636 0.90747809 0.053193 -0.887918 0.456916
0.45301265 -1.69029605 0.96368074 0.226118 -0.845288 0.484106
1.34968543 -1.19905579 0.82925177 0.679733 -0.603284 0.417147
1.63803947 -0.55119938 0.98557425 0.823222 -0.275445 0.496423
1.67767274 -0.59811950 0.87395847 0.845496 -0.299414 0.442140
1.69010139 -0.40549108 0.97681332 0.846714 -0.203031 0.491786
-0.73266554 1.68348670 0.75417501 -0.365994 0.848795 0.381569
-1.63876998 1.00108564 0.53480762 -0.822744 0.502356 0.265953
-1.71011889 0.69618219 0.72254997 -0.862372 0.350194 0.365621
-1.86624324 0.35864303 0.57181990 -0.940860 0.179931 0.287065
-1.46822309 -1.14805830 0.67099172 -0.742828 -0.577755 0.338238
-1.15011156 -1.47767997 0.64498484 -0.579597 -0.747503 0.324510
0.00837039 -1.87777734 0.67368942 0.006268 -0.941411 0.337203
1.14994049 -1.47977781 0.64034837 0.580939 -0.748302 0.320241
1.43790424 -1.18565202 0.67446214 0.725463 -0.598872 0.339199
1.79160559 -0.58161402 0.62912959 0.902485 -0.290981 0.317569
1.80480468 -0.45013243 0.71732908 0.905696 -0.225334 0.359080
1.95656633 0.11303073 0.31857786 0.985294 0.057544 0.160888
1.47502708 1.22440827 0.51629120 0.744967 0.615270 0.257812
0.75547731 1.80161893 0.32361633 0.379346 0.910714 0.163389
0.46323675 1.87644756 0.48957404 0.230927 0.941684 0.244755
-0.61598444 1.82221663 0.49780503 -0.309706 0.917594 0.249205
-1.34929681 1.43812287 0.27923828 -0.677288 0.722340 0.139662
-1.72820199 0.92375106 0.34102356 -0.869310 0.463338 0.172097
-1.86978090 0.59687877 0.31205365 -0.941184 0.299157 0.157092
-1.27329850 -1.44320261 0.49339882 -0.641268 -0.726350 0.247369
-1.17548251 -1.54496884 0.38595027 -0.593646 -0.780790 0.194814
-0.75923306 -1.76067913 0.50812054 -0.382392 -0.888280 0.254432
1.18059123 -1.51630175 0.48550457 0.594231 -0.766700 0.243023
1.87647462 -0.55878109 0.35462213 0.943405 -0.280694 0.176632
1.92606056 -0.40877071 0.27620283 0.968915 -0.204050 0.139883
1.96182597 0.22965211 0.12113756 0.991232 0.117488 0.060455
1.69507253 1.03662574 0.10834572 0.852260 0.520283 0.054400
1.40513992 1.40202379 0.22497089 0.704203 0.701238 0.111190
-0.93512630 1.75638223 0.03611527 -0.470030 0.882479 0.017409
-1.66656959 1.08329988 0.01908177 -0.838437 0.544916 0.009512
-1.90677941 0.57456332 0.02122695 -0.957554 0.288125 0.008582
0.23680905 -1.95765817 0.17035124 0.120277 -0.989074 0.085245
1.99523759 -0.03249079 0.00739834 0.999884 -0.014924 0.002985
1.99373019 0.04467319 -0.00592736 0.999730 0.023063 -0.003008
1.90094352 0.55725765 -0.20611091 0.954250 0.280662 -0.103127
1.16226733 1.58913767 -0.22465084 0.585538 0.802730 -0.112999
0.82330000 1.79729331 -0.11301386 0.414325 0.908277 -0.058033
-1.73702931 0.94889867 -0.23015279 -0.872171 0.475340 -0.115623
-1.98713875 0.02763475 -0.14071724 -0.997402 0.013721 -0.070715
-1.92304957 -0.49979502 -0.17013504 -0.964414 -0.250316 -0.085133
-1.61905670 -1.14033449 -0.06484947 -0.817359 -0.575076 -0.034811
-1.42207694 -1.38770950 -0.15228903 -0.713673 -0.696231 -0.077036
-0.53649729 -1.92357790 -0.00656943 -0.269449 -0.963008 -0.003625
-0.08062676 -1.97955942 -0.14991307 -0.040203 -0.996375 -0.074973
0.51882684 -1.91688478 -0.20578694 0.259773 -0.960257 -0.102100
1.34046865 -1.46373677 -0.08623236 0.675904 -0.735668 -0.044112
1.94976866 -0.25224134 -0.25972399 0.983341 -0.127313 -0.129738
1.76210737 0.87297857 -0.28070879 0.887929 0.437510 -0.142011
1.27861845 1.48184979 -0.32150355 0.644292 0.747379 -0.162210
1.12694502 1.58956385 -0.35637850 0.568817 0.802412 -0.180505
-0.23086214 1.94971752 -0.27502093 -0.117319 0.983306 -0.139090
-0.12930948 1.92136049 -0.48479569 -0.066175 0.967648 -0.243473
-0.81659639 1.77166736 -0.34533119 -0.411780 0.894356 -0.174826
-0.88944632 1.72706699 -0.41290814 -0.447638 0.869994 -0.206716
-1.84010172 0.68877423 -0.27277082 -0.928182 0.346172 -0.136538
-1.92886913 -0.35325399 -0.29882702 -0.972126 -0.179176 -0.151220
-1.88571918 -0.50151473 -0.41762781 -0.945513 -0.251130 -0.207217
-1.78172469 -0.79071903 -0.34842992 -0.899786 -0.398785 -0.177078
-1.47287035 -1.29410124 -0.30983412 -0.742364 -0.651647 -0.155730
-0.23946694 -1.90470934 -0.49559787 -0.120869 -0.960454 -0.250836
1.68663156 -0.97219801 -0.44175971 0.845187 -0.487083 -0.220022
1.89663696 -0.47885355 -0.37773961 0.952402 -0.238437 -0.189942
1.81900895 0.31789988 -0.72676873 0.917310 0.159226 -0.364951
1.45543027 1.14341807 -0.70954132 0.735528 0.575702 -0.357163
1.11819923 1.52039361 -0.60201943 0.564031 0.768552 -0.301988
0.28498399 1.86871862 -0.59309506 0.142142 0.943552 -0.299175
-0.05944888 1.87146664 -0.67247051 -0.031932 0.941348 -0.335922
-0.30560285 1.82984471 -0.69961733 -0.154938 0.922649 -0.353147
-0.79367054 1.73750091 -0.53653061 -0.399581 0.876063 -0.269906
-1.30105603 1.32005107 -0.74353218 -0.652098 0.661953 -0.369577
-1.85952306 0.07126657 -0.70307183 -0.934959 0.034915 -0.353034
-1.87597835 -0.39781007 -0.52795076 -0.943451 -0.199127 -0.265045
-1.83177614 -0.33695886 -0.68176651 -0.923739 -0.169609 -0.343423
-1.41066432 -1.22759223 -0.66281199 -0.710635 -0.619569 -0.333364
-0.48605305 -1.79725015 -0.72229505 -0.242228 -0.899912 -0.362607
-0.36665660 -1.88067913 -0.52618515 -0.183835 -0.946411 -0.265540
0.12528835 -1.86776054 -0.65785325 0.063996 -0.941659 -0.330429
0.08741271 -1.85011113 -0.72453606 0.045709 -0.931153 -0.361752
1.19351530 -1.42174852 -0.69832206 0.602489 -0.716782 -0.351043
1.79919493 -0.62012947 -0.56450099 0.906986 -0.312097 -0.282792
1.74538636 0.08282319 -0.95084751 0.876954 0.042279 -0.478711
-1.20894301 1.24355400 -0.98915416 -0.605037 0.621890 -0.497175
-1.29467034 1.26135623 -0.84095114 -0.649818 0.633199 -0.420471
-1.57705426 0.93918294 -0.78388035 -0.790304 0.470303 -0.392728
-1.58360624 0.79248512 -0.89957708 -0.797770 0.398079 -0.452875
-1.75566983 0.00708736 -0.95021349 -0.879361 0.001326 -0.476155
-1.79432046 -0.04805079 -0.86090195 -0.901712 -0.025232 -0.431600
-1.73983872 -0.38782072 -0.88067323 -0.874891 -0.193273 -0.444085
-1.32369089 -1.17261052 -0.90435815 -0.666539 -0.589695 -0.456053
0.27761734 -1.75527108 -0.87879986 0.139201 -0.885432 -0.443434
0.95334190 -1.57757390 -0.76540774 0.475295 -0.791085 -0.385070
1.44935393 -1.05967689 -0.84106541 0.731630 -0.533446 -0.424444
1.73722613 -0.44474286 -0.87077504 0.871082 -0.222626 -0.437782
1.80699420 -0.05294134 -0.83389652 0.907712 -0.025104 -0.418842
1.07212639 1.31286550 -1.03471506 0.539354 0.660331 -0.522552
0.79255867 1.45576417 -1.10413134 0.395653 0.730562 -0.556541
0.16549167 1.65613174 -1.08101368 0.081376 0.835173 -0.543933
-0.48884410 1.56776047 -1.12338603 -0.244762 0.787293 -0.565916
-0.82201719 1.38600075 -1.17696428 -0.409388 0.694468 -0.591706
-1.33882737 1.06296277 -1.01204455 -0.672468 0.534956 -0.511478
-1.56325746 -0.20411879 -1.21239913 -0.785555 -0.103863 -0.610012
0.80583382 -1.50495565 -1.02785957 0.404562 -0.755073 -0.515940
1.03324413 -1.21523190 -1.18736970 0.518484 -0.609683 -0.599550
1.38922048 0.50456846 -1.32858980 0.698426 0.251813 -0.669919
0.33687016 1.41080463 -1.36752963 0.169611 0.707476 -0.686083
-1.55190146 0.09849393 -1.24242461 -0.778659 0.049641 -0.625480
-1.41982877 0.09728049 -1.39320672 -0.712007 0.047087 -0.700592
-1.46680415 -0.49548706 -1.25014853 -0.736609 -0.247639 -0.629351
-1.19790304 -0.78873885 -1.38155079 -0.599913 -0.394984 -0.695767
-0.78908563 -1.36789393 -1.22602570 -0.394614 -0.681905 -0.615861
0.97206157 -1.15027952 -1.29665160 0.488385 -0.579013 -0.652858
1.19349968 -0.95919454 -1.26622427 0.599193 -0.481704 -0.639475
1.41822672 -0.65804416 -1.23021889 0.713005 -0.329704 -0.618804
1.44888461 -0.46216103 -1.28385723 0.728569 -0.233455 -0.643961
1.43491340 -0.10341737 -1.37508476 0.721768 -0.050024 -0.690325
1.27610922 0.43947327 -1.46283221 0.641371 0.220033 -0.735002
1.16356874 0.73076767 -1.44440353 0.583506 0.367756 -0.724070
-1.19761300 -0.63363272 -1.46125698 -0.601173 -0.317510 -0.733334
0.40188479 -1.25147748 -1.49568534 0.202142 -0.628030 -0.751476
0.72583866 -1.13403308 -1.46778440 0.364191 -0.569967 -0.736548
1.13702619 -0.72242147 -1.46752393 0.572166 -0.363513 -0.735176
1.23749173 -0.56979752 -1.45027590 0.622590 -0.286487 -0.728222
1.31464505 -0.16701141 -1.48225033 0.661268 -0.082840 -0.745562
1.01524842 0.41783240 -1.66032982 0.511700 0.208021 -0.833601
0.85267299 0.80374944 -1.61457026 0.427918 0.402275 -0.809358
0.50913340 1.00282669 -1.64451683 0.255135 0.505631 -0.824163
0.02241817 1.03065085 -1.70959854 0.009439 0.516454 -0.856263
-0.94634384 0.59922546 -1.64839709 -0.477944 0.299303 -0.825825
-1.07236421 0.05336870 -1.67900395 -0.539532 0.026084 -0.841561
-1.07264102 -0.16509379 -1.66899085 -0.538473 -0.084270 -0.838418
-0.63792711 -0.97427094 -1.61758697 -0.318187 -0.489152 -0.812088
-0.36240858 -0.94673502 -1.71728337 -0.182201 -0.475500 -0.860641
0.62947899 -0.78071165 -1.72454453 0.314819 -0.391604 -0.864601
1.09452152 -0.44961125 -1.60277486 0.550536 -0.226691 -0.803443
0.67311454 0.59200424 -1.78031754 0.339321 0.297466 -0.892399
0.52228934 0.81740016 -1.74448991 0.261220 0.409194 -0.874256
-0.72390145 0.53520459 -1.77747512 -0.364582 0.269344 -0.891366
-0.70726877 0.44554877 -1.81118631 -0.355836 0.222216 -0.907745
-0.40403685 -0.76338285 -1.79748535 -0.201643 -0.384427 -0.900864
0.07532169 -0.88909960 -1.78185070 0.039011 -0.445258 -0.894552
0.12671307 -0.82904738 -1.80812860 0.063722 -0.416228 -0.907025
-0.41632003 0.52512717 -1.87815177 -0.208247 0.263412 -0.941938
-0.67380470 0.20872098 -1.86707997 -0.337753 0.106305 -0.935212
-0.57777214 -0.08375623 -1.90769589 -0.290910 -0.041559 -0.955847
-0.33990070 -0.46834943 -1.90950251 -0.171630 -0.235492 -0.956602
0.01178162 -0.65130013 -1.88595307 0.006244 -0.325946 -0.945368
0.18322700 -0.63774061 -1.88182819 0.091296 -0.318874 -0.943390
0.07402322 0.29402179 -1.97439325 0.037877 0.148066 -0.988252
0.23207584 -0.06260894 -1.98424160 0.116974 -0.032307 -0.992609
