//X Y Z Nx Ny Nz
218
0.00824418 0.05468449 1.99634469 0.005043 0.029250 0.999559
-0.23674209 -0.22529203 1.96961808 -0.120164 -0.113026 0.986299
-0.57097262 -0.10670768 1.90897822 -0.284486 -0.054368 0.957137
-0.14968789 -0.66344863 1.87566602 -0.074943 -0.332641 0.940071
0.04884444 -0.66573173 1.87939775 0.024120 -0.331328 0.943207
0.05374758 -0.69869190 1.86799014 0.026903 -0.349733 0.936463
0.29799235 0.90306836 1.75347972 0.149130 0.453182 0.878855
-0.71474898 0.39342049 1.82185519 -0.359475 0.196208 0.912294
-0.22905470 -0.72879112 1.84668887 -0.113716 -0.363069 0.924797
0.67653692 -0.52583706 1.79900229 0.340158 -0.263586 0.902671
0.77309465 -0.08847196 1.83820415 0.386216 -0.043499 0.921382
0.95829743 0.45848015 1.68530655 0.481443 0.229331 0.845943
0.86092317 0.58941883 1.69809282 0.434087 0.295056 0.851182
-0.23668702 1.16788793 1.59905088 -0.119068 0.586519 0.801135
-0.95951235 0.52388370 1.66768193 -0.483424 0.261018 0.835566
-1.10018635 0.35575309 1.62345433 -0.553669 0.179528 0.813155
-1.16363716 0.26423046 1.59946823 -0.582589 0.131935 0.801987
-1.12851083 -0.15536742 1.63251531 -0.567744 -0.078655 0.819439
-1.00390399 -0.27821708 1.70340109 -0.504341 -0.138877 0.852264
-0.89263725 -0.62924522 1.66479647 -0.448326 -0.317109 0.835730
-0.65011162 -0.81906271 1.69557405 -0.327084 -0.410792 0.851038
-0.47543135 -0.89753234 1.71876967 -0.237601 -0.449475 0.861115
0.13095124 -1.04765224 1.68869114 0.066044 -0.526946 0.847329
0.91965020 -0.44272193 1.71343410 0.461824 -0.221134 0.858963
0.98006421 -0.16856176 1.73054349 0.491839 -0.083148 0.866707
1.32361913 0.27263254 1.46218586 0.665094 0.136622 0.734156
0.95760012 0.90426821 1.49551725 0.478948 0.452614 0.752163
-0.57309735 1.10679448 1.55596626 -0.286541 0.555667 0.780467
-1.36995006 0.07109523 1.44482327 -0.688060 0.035321 0.724794
-0.72533906 -1.18747103 1.43055296 -0.364537 -0.593395 0.717632
-0.47449160 -1.25058389 1.47183788 -0.240105 -0.629295 0.739147
1.07474732 -0.70089501 1.52282000 0.541279 -0.350619 0.764253
1.16833270 -0.35130093 1.58075464 0.586836 -0.177416 0.790030
1.48615563 0.02789712 1.32799137 0.744935 0.015316 0.666961
1.39542174 0.71079719 1.23123264 0.699100 0.355280 0.620512
0.69649357 1.29107642 1.34840262 0.347733 0.648123 0.677509
0.60421348 1.43925250 1.23157024 0.304385 0.723116 0.620043
0.04810143 1.41914570 1.40136850 0.023844 0.711101 0.702686
0.21223979 1.49912751 1.28552604 0.104578 0.755613 0.646616
-1.40904832 0.40811658 1.34997284 -0.706165 0.203313 0.678229
-1.46570814 -0.28813386 1.31224048 -0.736149 -0.146026 0.660879
-0.25132197 -1.43837214 1.34893727 -0.126785 -0.723417 0.678670
1.25908434 -0.76094639 1.34518456 0.631931 -0.381139 0.674830
1.33025455 -0.65940899 1.32309508 0.669013 -0.330437 0.665757
1.50876260 -0.34721944 1.25427628 0.757211 -0.175210 0.629232
-1.26141727 0.96844172 1.19160831 -0.634444 0.486351 0.600786
-1.49197865 0.61531043 1.15601683 -0.751986 0.309453 0.582028
-1.69578636 0.21262102 1.01238036 -0.854037 0.104781 0.509551
-1.40464818 -0.79585791 1.17351270 -0.704024 -0.397353 0.588610
-1.28712666 -0.98664165 1.14409471 -0.648090 -0.496589 0.577390
0.24591991 -1.69291627 1.01011515 0.123332 -0.851714 0.509287
1.42901278 -0.78674459 1.14479804 0.716933 -0.393901 0.575195
1.52335358 -0.77349985 1.02087998 0.765892 -0.388637 0.512221
1.64326143 -0.16756241 1.09986758 0.828419 -0.084416 0.553710
1.50090027 0.90278864 0.95276529 0.753587 0.451495 0.477764
1.31081963 1.26463795 0.81066072 0.657729 0.634535 0.405903
0.35092521 1.76772451 0.83397621 0.175763 0.890436 0.419798
-0.55500931 1.70223784 0.86128265 -0.277533 0.857133 0.433933
-0.76770365 1.58205426 0.92190605 -0.384850 0.797075 0.465363
-1.24079168 1.34795475 0.78009474 -0.622127 0.678234 0.391098
-1.71640730 0.49065253 0.88487989 -0.861549 0.246806 0.443645
-1.80568182 -0.02052344 0.84521186 -0.906321 -0.011770 0.422427
-1.66833639 -0.55370224 0.92636591 -0.840381 -0.277032 0.465847
-1.59401131 -0.86239386 0.82519799 -0.800553 -0.433297 0.413968
-1.46252930 -1.04274035 0.84077436 -0.737239 -0.526128 0.423871
-0.57207108 -1.69057596 0.86996454 -0.287862 -0.851270 0.438720
-0.37086782 -1.76304340 0.83814478 -0.185624 -0.887197 0.422405
0.94909549 -1.44832492 0.98041993 0.476157 -0.728337 0.492747
1.18865156 -1.34249091 0.85387975 0.596999 -0.676821 0.430704
1.43893230 -1.11921811 0.78384167 0.725734 -0.564460 0.393312
1.77264380 0.61091614 0.64786398 0.894142 0.306009 0.326907
1.47840941 1.10370052 0.72721487 0.746972 0.554940 0.366163
1.14547420 1.43902349 0.74449825 0.577758 0.725062 0.374806
1.20764410 1.46518064 0.57038331 0.608863 0.739905 0.286054
0.18057963 1.83390820 0.73613489 0.090714 0.924742 0.369626
0.17874610 1.90787542 0.51894546 0.088289 0.960937 0.262306
-1.77159429 -0.70648026 0.54208148 -0.894121 -0.355565 0.272253
-1.02753842 -1.55432069 0.68603230 -0.516377 -0.783413 0.345860
-0.77159894 -1.71693969 0.61807126 -0.389905 -0.866965 0.310395
-0.32243735 -1.80581582 0.76387501 -0.160687 -0.908666 0.385365
0.30291471 -1.83609283 0.68225330 0.151335 -0.926058 0.345710
0.81999528 -1.66915071 0.69422877 0.412113 -0.841462 0.349434
1.50716841 -1.13874614 0.59602934 0.761733 -0.573296 0.301819
1.07859921 1.60032082 0.46234187 0.541907 0.807458 0.233128
0.78348279 1.77998662 0.37061366 0.395357 0.899329 0.186817
0.49808437 1.91610575 0.26713544 0.247485 0.959823 0.132254
-0.16588667 1.95096910 0.31173420 -0.084890 0.984003 0.156627
-0.97870439 1.67036974 0.48890525 -0.489862 0.836911 0.244163
-1.72504878 0.85031515 0.49829617 -0.868882 0.427641 0.249331
-1.95969570 0.00219440 0.37620401 -0.982047 -0.001143 0.188635
-1.90607381 -0.38528398 0.39222717 -0.960965 -0.194308 0.196952
-1.83146071 -0.65071630 0.38710234 -0.924386 -0.328828 0.193345
-1.60018134 -1.10732639 0.37422612 -0.808688 -0.556826 0.189655
1.02490342 -1.67650187 0.32162634 0.513834 -0.842569 0.161406
1.28066313 -1.45825315 0.41011879 0.645598 -0.735394 0.205910
1.68283617 -1.01961410 0.31247163 0.845101 -0.510613 0.158364
1.06395257 1.68059909 0.02904742 0.534721 0.844940 0.012246
-1.51537848 1.25495338 0.25686812 -0.763580 0.632595 0.129496
-1.93776941 0.34814942 0.25015333 -0.976334 0.175815 0.125938
-1.73331952 -0.98829889 0.05086749 -0.868705 -0.494660 0.025749
-1.54526341 -1.24072981 0.02525776 -0.779050 -0.626838 0.012454
-1.32327783 -1.46363330 0.24854261 -0.666536 -0.735128 0.123764
-1.05022120 -1.67805374 0.18875837 -0.526385 -0.844798 0.096098
-0.64102751 -1.87158537 0.13018392 -0.324163 -0.943848 0.063791
1.01211870 -1.71648347 0.07652694 0.506851 -0.861235 0.037087
1.08752787 -1.66136038 0.04306956 0.547910 -0.836284 0.020598
1.52238071 -1.26674139 0.06094736 0.769609 -0.637836 0.029439
1.81094432 -0.80277538 0.03980323 0.913474 -0.406424 0.019602
1.93188095 0.40367234 -0.22846863 0.972417 0.203060 -0.114773
1.77491426 0.87365061 -0.13466911 0.895234 0.440077 -0.069919
0.90119642 1.75875366 -0.20221104 0.452153 0.885994 -0.102826
0.53035396 1.91049433 -0.22876135 0.265169 0.957481 -0.113644
0.47666681 1.93283975 -0.06722143 0.239241 0.970321 -0.035218
0.06854087 1.98121738 -0.14889482 0.033474 0.996659 -0.074506
-0.98950309 1.72579145 -0.15080625 -0.495114 0.865397 -0.077142
-1.98810399 0.00288829 -0.17569697 -0.996132 0.001059 -0.087863
-1.97574699 -0.06796762 -0.23350839 -0.992469 -0.034686 -0.117485
-1.78559685 -0.82874024 -0.24726833 -0.900744 -0.415837 -0.125456
-1.06876040 -1.67642081 -0.03501844 -0.537144 -0.843303 -0.017768
-1.12562144 -1.62477219 -0.13290177 -0.567493 -0.820660 -0.066848
-0.72609586 -1.84417784 -0.01887933 -0.366299 -0.930426 -0.011487
-0.52959746 -1.91642749 -0.14886066 -0.265385 -0.961227 -0.074917
-0.25510150 -1.95938540 -0.10725468 -0.129348 -0.990139 -0.053799
0.18210538 -1.97448778 -0.02345903 0.093634 -0.995536 -0.011839
1.18483579 -1.57254791 -0.21577090 0.597526 -0.794254 -0.110109
1.46202362 -1.34527183 -0.06215349 0.735768 -0.676454 -0.032481
1.04962730 1.63680315 -0.40500951 0.527040 0.824734 -0.205044
-0.14361309 1.96139610 -0.27405635 -0.073822 0.987803 -0.137097
-0.25835443 1.91550052 -0.42884600 -0.129768 0.967477 -0.217136
-1.43670666 1.29420805 -0.45498648 -0.723183 0.651021 -0.230603
-1.53551269 1.18126607 -0.40613765 -0.775715 0.596822 -0.205109
-1.93031847 -0.15289885 -0.42414874 -0.973709 -0.077946 -0.214043
-1.91809082 -0.12147349 -0.50642008 -0.965221 -0.061343 -0.254137
-1.29369116 -1.47666287 -0.29584298 -0.650785 -0.744401 -0.149484
0.46793640 -1.91870046 -0.27404493 0.233199 -0.962760 -0.136793
0.22270611 -1.91238368 -0.46810922 0.111778 -0.964888 -0.237689
1.06996489 -1.63255870 -0.35930550 0.537405 -0.823419 -0.182146
1.42155874 -1.33367777 -0.39408782 0.716143 -0.669740 -0.196437
1.89060080 -0.51541269 -0.37260070 0.948234 -0.257125 -0.186382
1.91635156 -0.21716194 -0.45183152 0.967569 -0.108357 -0.228188
1.76607513 0.73493719 -0.52487487 0.890830 0.370311 -0.263233
-0.20273696 1.86557794 -0.63424557 -0.102630 0.942333 -0.318554
-0.71701348 1.75563395 -0.57391787 -0.361432 0.886334 -0.289446
-1.00575912 1.57172024 -0.68441153 -0.505377 0.790955 -0.344940
-1.74692702 0.71689296 -0.59795660 -0.882978 0.360738 -0.300363
-1.69643474 0.76724315 -0.67931342 -0.856720 0.385756 -0.342378
-1.15428293 -1.52319074 -0.53015602 -0.582066 -0.768201 -0.266583
-0.89854324 -1.66009033 -0.62978572 -0.451994 -0.833608 -0.317490
-0.24043506 -1.87894797 -0.58023804 -0.121012 -0.948149 -0.293886
0.17934296 -1.88539541 -0.58493829 0.090073 -0.951640 -0.293716
0.74883991 -1.72164333 -0.63103795 0.377352 -0.869284 -0.319298
1.26117575 -1.37292254 -0.69103384 0.634711 -0.690187 -0.347541
1.52777290 -1.04539907 -0.71630687 0.770877 -0.525231 -0.360389
1.91368711 -0.07409880 -0.54241121 0.961042 -0.035962 -0.274052
1.76494789 0.45869929 -0.81083477 0.883374 0.230123 -0.408282
-0.44795439 1.69466901 -0.95621473 -0.222989 0.847964 -0.480867
-1.61624098 0.71111739 -0.90159702 -0.815043 0.357475 -0.455979
-1.70145392 -0.34539330 -0.96983653 -0.855534 -0.173479 -0.487818
-1.60303164 -0.69372058 -0.94017369 -0.808520 -0.349242 -0.473630
-1.42967308 -1.05105543 -0.88373500 -0.721653 -0.529212 -0.446264
-0.71495795 -1.60614288 -0.91767228 -0.359205 -0.809410 -0.464572
-0.35407510 -1.70944130 -0.95132196 -0.176214 -0.860339 -0.478295
0.01292365 -1.84501243 -0.76748633 0.006421 -0.923324 -0.383969
1.01527882 -1.38943577 -0.99357110 0.509761 -0.700294 -0.499732
1.55886710 -0.90549368 -0.85533786 0.780874 -0.452939 -0.430211
1.58751094 -0.79176611 -0.89276153 0.800096 -0.397633 -0.449148
1.60496366 0.42797464 -1.10587466 0.803977 0.213677 -0.554944
0.42088228 1.58849752 -1.13191545 0.210839 0.795649 -0.567881
-0.49820954 1.55181003 -1.14022052 -0.248628 0.780287 -0.573878
-1.52734482 0.64290178 -1.09075594 -0.769493 0.322898 -0.551015
-1.23825347 -1.16183579 -1.04163182 -0.622032 -0.581574 -0.524260
-0.92456448 -1.28608155 -1.20239115 -0.464727 -0.645920 -0.605654
0.56854892 -1.52086222 -1.14274788 0.284748 -0.765161 -0.577450
1.14727724 -1.24959028 -1.04143357 0.575866 -0.626529 -0.525204
1.20145690 0.89450043 -1.30425918 0.604079 0.450131 -0.657626
0.21964964 1.55201590 -1.22410607 0.110205 0.780252 -0.615679
-1.39479065 -0.19351535 -1.40731061 -0.700729 -0.098425 -0.706605
-0.99717057 -1.21078134 -1.22386670 -0.499729 -0.607414 -0.617510
-0.33963382 -1.51962531 -1.24302840 -0.168834 -0.762033 -0.625141
0.28306884 -1.38586617 -1.40404320 0.143277 -0.695272 -0.704321
1.27677786 0.25920510 -1.50481474 0.640470 0.129886 -0.756920
1.05897951 0.76312935 -1.50037348 0.532908 0.382977 -0.754545
0.81320000 1.13445270 -1.42044795 0.407432 0.569085 -0.714242
0.42369935 1.16863561 -1.55600035 0.211659 0.588628 -0.780203
0.30703637 1.31839573 -1.46279442 0.152891 0.661518 -0.734179
-0.34895298 1.30245781 -1.47193193 -0.175610 0.652047 -0.737561
-0.64755327 1.13849342 -1.50485814 -0.324145 0.572495 -0.753113
-0.99840754 0.81832170 -1.51316047 -0.502351 0.410717 -0.760890
-1.25711274 0.54087627 -1.44403124 -0.631114 0.271840 -0.726497
-1.33234596 0.07427015 -1.47743440 -0.668937 0.035356 -0.742478
-1.08664930 -0.57378626 -1.57219589 -0.546316 -0.286618 -0.787012
-1.01841962 -0.89368886 -1.45853341 -0.511341 -0.448457 -0.733087
-0.90192580 -0.82414579 -1.57773089 -0.451419 -0.412587 -0.791197
-0.74703234 -1.18626070 -1.41972101 -0.375612 -0.595403 -0.710219
-0.48854858 -1.22978628 -1.48407567 -0.243830 -0.618228 -0.747222
1.19184053 -0.36628968 -1.55646992 0.599172 -0.184478 -0.779077
1.36949313 -0.27114838 -1.42212653 0.686807 -0.136760 -0.713858
0.72488934 0.80242723 -1.67378962 0.365420 0.403060 -0.839054
0.33959612 1.08083415 -1.63967109 0.169491 0.541472 -0.823457
-0.62041104 0.92231482 -1.65255308 -0.311680 0.465171 -0.828536
1.03659594 -0.58697283 -1.60341525 0.519192 -0.291947 -0.803248
0.89627731 -0.44199306 -1.72817516 0.448755 -0.220625 -0.865993
0.89798522 0.34122893 -1.74758565 0.451699 0.171032 -0.875623
0.49448448 0.80362272 -1.75834596 0.246928 0.402567 -0.881457
-0.29708093 0.80500233 -1.79871833 -0.149169 0.404887 -0.902117
-0.65597981 0.58452904 -1.78934264 -0.330756 0.292193 -0.897343
-0.76627386 -0.38672915 -1.79945123 -0.385541 -0.192048 -0.902483
-0.55061805 -0.68662143 -1.78751922 -0.277141 -0.345315 -0.896633
0.33101887 -0.79507935 -1.79681826 0.164841 -0.399917 -0.901606
0.54411983 -0.70187402 -1.78346789 0.274563 -0.351738 -0.894928
0.78323072 -0.10115963 -1.83238196 0.392159 -0.049186 -0.918582
-0.30791152 0.43565401 -1.92505109 -0.155165 0.217753 -0.963591
0.05697539 -0.65034354 -1.88425803 0.029172 -0.325969 -0.944930
0.65057850 -0.36374781 -1.85411465 0.326955 -0.181018 -0.927541
-0.34948367 -0.22178441 -1.95210147 -0.173953 -0.112268 -0.978333
0.37879390 -0.16887595 -1.95163846 0.189761 -0.084474 -0.978189
0.23069932 0.00347756 -1.98484921 0.116148 0.003256 -0.993227
-0.20395789 0.08664036 -1.98535109 -0.103486 0.043397 -0.993684
