//X Y Z Nx Ny Nz
196
0.38707155 0.01306236 1.95748091 0.195221 0.008086 0.980726
0.06834184 -0.40570697 1.95232642 0.034480 -0.203311 0.978507
0.65691864 0.13121058 1.87870848 0.328043 0.066654 0.942308
0.47949904 0.18404889 1.93177557 0.239410 0.092470 0.966505
0.07713211 0.70246577 1.86566401 0.037532 0.350734 0.935723
-0.50751919 0.16307688 1.92566001 -0.252132 0.082355 0.964182
-0.59425628 -0.06302562 1.90302670 -0.297200 -0.031350 0.954300
-0.55794793 -0.43188095 1.86599326 -0.280910 -0.216622 0.934968
0.04948678 -0.56273240 1.91433263 0.025995 -0.280998 0.959356
0.29750603 0.89833766 1.75574613 0.148752 0.452031 0.879512
0.11470054 0.75229794 1.84675717 0.057068 0.375586 0.925029
-0.93018013 0.32556906 1.73577166 -0.467437 0.162650 0.868935
-0.88016188 -0.04398829 1.78829253 -0.440171 -0.022607 0.897629
-0.45784709 -0.73292130 1.79733944 -0.230020 -0.367738 0.901032
-0.26021606 -0.88249516 1.77012444 -0.129587 -0.442873 0.887170
1.09385681 0.37517697 1.62238598 0.549897 0.189359 0.813484
0.90901548 0.53500086 1.69470513 0.455769 0.268551 0.848620
0.35435978 1.07849610 1.63731909 0.176177 0.543589 0.820654
-0.28635517 1.12324512 1.62451112 -0.144237 0.563567 0.813380
-0.31090537 0.95923859 1.72278106 -0.153783 0.481854 0.862651
-0.67587900 1.00041962 1.58803535 -0.337544 0.503916 0.795068
-0.83944428 0.58456039 1.71157038 -0.422036 0.293123 0.857884
-0.91387540 0.55369276 1.68443799 -0.458576 0.276381 0.844583
-1.01344919 -0.06672481 1.71719468 -0.508938 -0.034295 0.860120
1.12934303 0.58994532 1.53183627 0.568054 0.294370 0.768544
0.76120603 1.07058907 1.49326217 0.380462 0.537218 0.752759
0.32813072 1.24250472 1.52691364 0.165109 0.622565 0.764952
-0.67323017 1.07982254 1.53415537 -0.336931 0.543281 0.768976
-1.00767207 -0.81901020 1.50628829 -0.506047 -0.411061 0.758252
-0.24633995 -1.36868060 1.42570341 -0.123623 -0.686630 0.716419
0.43644035 -1.14815080 1.56842792 0.218064 -0.576864 0.787195
0.89291567 -0.98642933 1.48139906 0.447069 -0.496560 0.744015
1.00036931 -0.98899817 1.41987872 0.498376 -0.495042 0.711727
1.14465201 -0.42944902 1.57365358 0.575846 -0.214591 0.788893
1.27906203 -0.24229032 1.50476432 0.643244 -0.120330 0.756146
1.01862538 1.01758564 1.38490629 0.510423 0.507076 0.694509
0.73728031 1.21497393 1.40200293 0.369601 0.609430 0.701420
0.59753656 1.32725096 1.35351884 0.300939 0.667860 0.680734
-1.42903829 0.21968833 1.36432934 -0.718839 0.111161 0.686232
-1.48968852 0.16845727 1.30286181 -0.749711 0.082978 0.656543
0.72217441 -1.25398767 1.37650907 0.361969 -0.627304 0.689543
1.63033199 0.18648067 1.11549020 0.821874 0.093887 0.561879
-0.55832052 1.54543626 1.11438537 -0.280411 0.777862 0.562406
-1.52992439 0.45030877 1.19841325 -0.766353 0.225398 0.601580
-0.69227141 -1.41935432 1.21284187 -0.346921 -0.711758 0.610776
-0.54971540 -1.61150670 1.02721357 -0.277043 -0.809217 0.518087
-0.19933185 -1.63209677 1.11031723 -0.099771 -0.822747 0.559583
0.80755806 -1.44260693 1.11381602 0.404053 -0.723998 0.559078
1.12148428 -1.23711634 1.08007407 0.561767 -0.622499 0.544897
1.30104828 -1.02006125 1.09671187 0.655113 -0.513649 0.554068
1.52968144 -0.67568350 1.06856036 0.770791 -0.339534 0.539071
1.58885300 -0.20364185 1.17418683 0.800640 -0.100627 0.590636
1.44922626 1.08545208 0.80917966 0.731652 0.547506 0.406108
-0.36518902 1.71267569 0.94179606 -0.182457 0.861852 0.473203
-0.74312210 1.60713840 0.89374709 -0.372418 0.810368 0.452336
-1.35687387 1.19016373 0.82865864 -0.684643 0.598441 0.416091
-1.72822309 0.15883067 0.96535963 -0.870172 0.079871 0.486231
-1.11077321 -1.44013751 0.79240048 -0.560744 -0.725185 0.399592
0.82458943 -1.58437085 0.87300432 0.413869 -0.797141 0.439635
1.02787530 -1.37588203 0.99988025 0.517412 -0.691558 0.504017
1.70392692 -0.29552916 0.97813380 0.856969 -0.147955 0.493673
1.87787521 0.33695912 0.54596251 0.946184 0.169689 0.275574
1.68734145 0.85246158 0.60737580 0.850229 0.428986 0.305091
1.50002050 1.12792301 0.63245648 0.757439 0.570894 0.316806
1.21244311 1.44962490 0.59837228 0.612326 0.731255 0.300538
-1.30323112 1.32113314 0.73704720 -0.652887 0.662755 0.366735
-1.42304134 1.24564862 0.60097504 -0.715672 0.628826 0.303959
-1.63554108 0.83979607 0.76397723 -0.821987 0.421328 0.383170
-1.87720609 0.38457701 0.52946603 -0.944766 0.193341 0.264644
-1.92120171 -0.06644577 0.52324170 -0.964401 -0.033255 0.262347
-1.74626338 -0.71025217 0.60732955 -0.882319 -0.357452 0.306172
-1.39350915 -1.21280456 0.73000044 -0.702525 -0.610820 0.365182
-1.21815789 -1.47621894 0.52534473 -0.613730 -0.743771 0.264840
0.55143601 -1.78323627 0.68641973 0.277141 -0.896633 0.345315
1.08704579 -1.52984571 0.63608879 0.548860 -0.772885 0.318435
1.34056270 -1.30959475 0.67973524 0.672939 -0.656645 0.340543
1.74213088 -0.78381819 0.53502357 0.877810 -0.395993 0.269516
1.92737460 0.20560850 0.40406114 0.973523 0.103726 0.203702
1.84979880 0.54902720 0.49851909 0.929196 0.273794 0.248258
1.22954798 1.53371656 0.26432395 0.618985 0.774104 0.132746
0.48178610 1.88882959 0.41504842 0.241367 0.947740 0.208639
-0.09450428 1.95158494 0.35588342 -0.048486 0.982732 0.178571
-0.72733557 1.79029262 0.43128574 -0.367347 0.904573 0.216343
-0.84692454 1.76226604 0.33052281 -0.426474 0.889090 0.166253
-1.67659628 1.03018439 0.30494523 -0.842932 0.515207 0.155005
-1.80310047 0.65414590 0.51330745 -0.908659 0.328167 0.258158
-1.93119442 -0.26897949 0.34291521 -0.975543 -0.136852 0.172007
-1.46815395 -1.31062293 0.27780712 -0.739521 -0.658519 0.139504
-0.03127366 -1.93033969 0.50454044 -0.015692 -0.966893 0.254700
0.00594027 -1.97813380 0.28103098 0.003326 -0.990032 0.140800
1.88718474 0.60263622 0.13448901 0.950511 0.303080 0.068354
1.73349988 0.98724359 0.05451925 0.868705 0.494660 0.025749
1.52315092 1.24841487 0.22322929 0.768424 0.629783 0.113567
0.91697830 1.75212395 0.20352864 0.461120 0.881346 0.102941
0.08086142 1.98829818 0.01611483 0.039885 0.999179 0.007159
-0.22612195 1.95960248 0.16215213 -0.114632 0.990000 0.082211
-1.32462943 1.47266185 0.12565242 -0.667451 0.742091 0.061721
-1.51444077 1.26421142 0.18158469 -0.765333 0.637049 0.091840
-1.69025552 1.05000925 0.04177712 -0.849273 0.527558 0.020448
-1.94337416 0.36680776 0.12716386 -0.980486 0.186016 0.063606
-1.59415662 -1.17369783 0.05629773 -0.804531 -0.593324 0.026401
-0.81477910 -1.79475105 0.19933695 -0.410854 -0.906091 0.100984
-0.72179735 -1.83852208 0.12460016 -0.364491 -0.929121 0.062295
0.68169129 -1.85578525 0.11535038 0.343774 -0.937208 0.058821
0.86059153 -1.78062427 0.13039255 0.432517 -0.899144 0.066856
1.49881983 -1.29460394 0.08757854 0.757014 -0.651913 0.044029
1.85591114 -0.68813950 0.07558653 0.936887 -0.347617 0.037475
1.95449591 -0.30030152 0.09106504 0.987404 -0.151641 0.045145
1.96635628 0.23496328 -0.04135055 0.992741 0.118421 -0.021028
1.85451531 0.68464351 -0.11601952 0.936041 0.346924 -0.058912
1.03569508 1.68638253 -0.22315417 0.518339 0.847534 -0.114063
0.68178391 1.85468006 -0.13051713 0.343825 0.936627 -0.067184
-0.51202786 1.92565191 -0.10585763 -0.257681 0.964746 -0.053528
-0.85593957 1.78325081 -0.12044466 -0.431608 0.899978 -0.061269
-1.94413126 0.37343156 -0.10230745 -0.980995 0.187140 -0.051255
-1.85415554 -0.70268488 -0.01488765 -0.935193 -0.354028 -0.008882
-1.47412586 -1.33329272 -0.02662041 -0.739664 -0.672802 -0.015323
-0.70238101 -1.84891319 -0.09121089 -0.354003 -0.933994 -0.048333
0.31404716 -1.94799221 -0.16268145 0.158991 -0.983828 -0.082484
0.83608365 -1.79925454 -0.00984802 0.421447 -0.906829 -0.006524
1.38216400 -1.42913532 -0.11806509 0.694284 -0.717284 -0.058935
1.94217026 -0.41541263 -0.04790280 0.977448 -0.209707 -0.024880
1.91083086 0.37418121 -0.37566066 0.963692 0.187494 -0.190116
1.86014807 0.62180340 -0.30881503 0.937477 0.311577 -0.155102
0.93654609 1.71600497 -0.37333497 0.470377 0.862110 -0.188447
0.55147576 1.85757637 -0.45733234 0.276506 0.933382 -0.228784
0.42829281 1.90586710 -0.36480081 0.216266 0.959265 -0.181769
-0.23120221 1.90413928 -0.50393355 -0.115666 0.960415 -0.253425
-0.69817823 1.80736911 -0.40786630 -0.352272 0.913032 -0.205612
-0.94361943 1.71127951 -0.38174596 -0.472525 0.860084 -0.192289
-1.33283663 1.43907881 -0.32620245 -0.671306 0.723062 -0.162879
1.10906339 -1.61354268 -0.31511301 0.557522 -0.814611 -0.159933
1.41682458 -1.34858882 -0.36710429 0.711877 -0.678052 -0.182966
1.89368844 -0.43324980 -0.42274645 0.952956 -0.217010 -0.211618
1.75884569 0.69593424 -0.58906984 0.889197 0.349381 -0.295399
1.59419858 0.99745536 -0.64644289 0.802219 0.500394 -0.325653
0.49617124 1.80690408 -0.68428862 0.247316 0.905851 -0.343901
-1.08266973 1.53584051 -0.62987286 -0.545264 0.775522 -0.318204
-1.41290104 1.27911580 -0.56434232 -0.710965 0.643863 -0.282788
-1.81752980 0.58209682 -0.55741537 -0.914770 0.291393 -0.279795
-1.88905525 0.01737910 -0.63697219 -0.947395 0.008715 -0.319948
-1.85719931 -0.02206030 -0.72900116 -0.931294 -0.011497 -0.364086
-1.12741542 -1.47754347 -0.68635958 -0.568582 -0.746769 -0.345037
1.76399851 0.44916004 -0.81530660 0.884140 0.223627 -0.410229
1.58645725 0.79607582 -0.89137954 0.799069 0.400339 -0.448572
0.45606172 1.71629024 -0.91020697 0.228064 0.859392 -0.457638
-1.00804257 1.40540791 -0.97666407 -0.507857 0.707670 -0.491206
-1.61977172 0.71995234 -0.88801008 -0.817519 0.360343 -0.449239
-1.80957139 0.06374545 -0.82578611 -0.909581 0.030452 -0.414409
1.15209734 -1.31139147 -0.94985652 0.579281 -0.659876 -0.478536
1.32502675 -1.21895695 -0.84448504 0.666497 -0.613310 -0.423832
1.46502578 -1.00112641 -0.88853681 0.738591 -0.503960 -0.447781
1.76172948 -0.06955730 -0.92124814 0.885961 -0.033712 -0.462533
1.60680509 0.13441929 -1.16095853 0.809034 0.069917 -0.583589
0.28184977 1.59268999 -1.15303493 0.141237 0.801336 -0.581303
-0.09276912 1.58785963 -1.19751871 -0.046546 0.796927 -0.602279
-1.10041082 1.22558761 -1.11324584 -0.551909 0.616045 -0.562036
-1.54325366 0.44430089 -1.18329465 -0.773537 0.221675 -0.593717
-1.48692834 -0.72018135 -1.10247946 -0.749290 -0.362455 -0.554247
-1.07105327 -1.25279605 -1.10763943 -0.538861 -0.630079 -0.559132
0.81196487 -1.50453389 -1.02490592 0.407296 -0.754071 -0.515254
0.96278507 -1.30575538 -1.14370787 0.484755 -0.655846 -0.578687
1.58980846 -0.50830454 -1.08139563 0.798544 -0.254721 -0.545385
-0.27685389 1.45818663 -1.32251024 -0.139567 0.733851 -0.664818
-0.63414872 1.29579878 -1.37082469 -0.319477 0.650307 -0.689228
-1.48777103 0.15224181 -1.30748260 -0.748472 0.076729 -0.658713
-1.53414404 -0.14978036 -1.25497401 -0.772204 -0.076499 -0.630753
-1.34298992 -0.57104409 -1.34845507 -0.675691 -0.287289 -0.678901
-0.57000393 -1.37574458 -1.31410873 -0.286593 -0.693267 -0.661245
-0.17575045 -1.50594044 -1.28323531 -0.088844 -0.758818 -0.645214
0.24355884 -1.49422932 -1.28640974 0.123573 -0.751859 -0.647641
0.75037122 -1.36302757 -1.24823594 0.373734 -0.683258 -0.627281
-0.79376608 1.02963758 -1.50446725 -0.397397 0.518415 -0.757180
-1.20815599 0.66712433 -1.44130421 -0.605084 0.335797 -0.721882
-1.18597305 -0.42725325 -1.54062891 -0.596525 -0.215369 -0.773158
-1.03145397 -0.66425180 -1.57293296 -0.519403 -0.330820 -0.787895
-0.88489443 -0.89849550 -1.54742646 -0.444692 -0.451208 -0.773732
-0.78509796 -0.94837922 -1.56615829 -0.393526 -0.477737 -0.785433
-0.51214594 -1.18782830 -1.51037645 -0.257221 -0.598078 -0.759039
-0.25797063 -1.36131942 -1.43081617 -0.130013 -0.682943 -0.718809
0.88881165 0.54027933 -1.70334208 0.445714 0.271104 -0.853136
-0.77617919 0.71277565 -1.69279373 -0.391857 0.357511 -0.847723
-1.04520071 0.47740912 -1.62631488 -0.526082 0.239128 -0.816122
0.56225604 -1.02168000 -1.61907721 0.280835 -0.513034 -0.811127
0.72003752 -0.69815481 -1.72880983 0.361978 -0.349655 -0.864126
0.77237117 0.23029934 -1.82642531 0.386291 0.114918 -0.915190
0.80172950 0.47559682 -1.76481223 0.403817 0.236926 -0.883628
0.20975904 0.92394942 -1.75593650 0.103198 0.462269 -0.880714
-0.48127696 0.79993713 -1.76379955 -0.240023 0.401032 -0.884060
-0.93130893 -0.11918633 -1.75818753 -0.466688 -0.059196 -0.882439
-0.05489739 0.56885493 -1.91201258 -0.028585 0.284607 -0.958218
-0.49965620 0.30430496 -1.90841782 -0.250603 0.152484 -0.956006
-0.51139307 -0.48259285 -1.86806917 -0.256006 -0.242016 -0.935890
-0.01058045 -0.62442780 -1.89512861 -0.003714 -0.313252 -0.949663
0.02113844 0.16228803 -1.98918068 0.011699 0.081895 -0.996572
-0.04835708 0.06470250 -1.99466038 -0.023715 0.034026 -0.999139
