//X Y Z Nx Ny Nz
184
0.04771943 -0.03290421 1.99617302 0.025370 -0.015222 0.999562
0.38179782 0.12553042 1.95440960 0.191544 0.063848 0.979405
0.32660976 -0.21712320 1.95631158 0.162825 -0.108958 0.980620
0.32787716 0.50086921 1.90317512 0.164591 0.250232 0.954093
-0.70510858 -0.04670721 1.86612666 -0.352001 -0.024320 0.935683
-0.50008285 -0.26939204 1.91408241 -0.250482 -0.135077 0.958652
0.65756935 -0.21595761 1.87126732 0.328811 -0.108709 0.938118
0.62944931 0.49162671 1.82794249 0.315959 0.246708 0.916136
-0.79686552 -0.03634593 1.82986593 -0.397934 -0.019571 0.917205
-0.82170987 -0.39858681 1.77171910 -0.411797 -0.197839 0.889541
-0.74748188 -0.59431988 1.75026989 -0.377078 -0.298330 0.876819
0.16592994 -0.79135847 1.82416856 0.083115 -0.396499 0.914265
0.50757307 -0.79289699 1.75861514 0.253141 -0.396937 0.882248
0.73501176 -0.66204810 1.73468280 0.368958 -0.332215 0.868046
0.92523050 0.38354838 1.72522080 0.464278 0.191348 0.864773
0.57083905 0.90113103 1.68421745 0.285705 0.452495 0.844761
-1.02375901 0.61015183 1.60252225 -0.513920 0.305189 0.801715
-0.70531309 -0.76512611 1.70176518 -0.355541 -0.383487 0.852366
-0.53512669 -1.00418365 1.63696802 -0.266216 -0.505966 0.820443
-0.13534962 -1.04485595 1.69017267 -0.066142 -0.524911 0.848583
1.16414952 -0.09357466 1.61413801 0.584600 -0.046486 0.809989
0.96211296 0.80701423 1.54471922 0.483237 0.405138 0.776109
0.85680515 1.07308125 1.44003546 0.431145 0.536866 0.725182
-0.28213993 1.30231202 1.47977376 -0.142688 0.653360 0.743479
-0.60416973 1.09101844 1.55834055 -0.300406 0.548361 0.780421
-1.34148300 0.03455209 1.47400725 -0.674190 0.015354 0.738398
-1.14623392 -0.58556902 1.51951420 -0.575130 -0.294734 0.763123
-0.01797478 -1.28758514 1.52318835 -0.006922 -0.646547 0.762843
1.40679502 0.18973124 1.39419031 0.706807 0.095514 0.700929
0.61549604 1.42620122 1.24047232 0.308115 0.717859 0.624295
0.11692896 1.55307698 1.23831666 0.058461 0.779950 0.623105
-0.55269545 1.36014307 1.33830440 -0.279542 0.685276 0.672497
-1.21080911 -0.73702145 1.40598452 -0.605955 -0.369485 0.704485
-0.83285981 -1.30935061 1.24896896 -0.416792 -0.655908 0.629340
-0.31527811 -1.48850000 1.28217626 -0.158895 -0.749076 0.643146
1.53300273 0.63286918 1.08866084 0.772885 0.318435 0.548860
1.34652293 0.83576858 1.21160543 0.673398 0.417340 0.610215
1.27008986 1.16135442 1.00394762 0.638744 0.581442 0.503916
-0.63031614 1.55463827 1.05996239 -0.317474 0.783315 0.534441
-1.59604609 0.25493789 1.15331447 -0.803350 0.128714 0.581430
-0.99476773 -1.30151701 1.11939371 -0.499814 -0.654638 0.567129
-0.42792612 -1.52702630 1.21538484 -0.215299 -0.763613 0.608722
-0.12341671 -1.66753566 1.07223678 -0.060421 -0.838865 0.540976
0.78308940 -1.48226225 1.07264674 0.391652 -0.745614 0.539136
0.96945870 -1.34626400 1.08906281 0.487070 -0.677880 0.550673
1.65189183 -0.48716718 1.00702381 0.826750 -0.244792 0.506519
1.56466627 -0.37242228 1.17712975 0.785255 -0.187546 0.590085
-0.84694529 1.62162995 0.78510106 -0.423064 0.815796 0.394328
-0.95959818 1.50879478 0.86922187 -0.480711 0.759622 0.438054
-1.71412408 0.38366818 0.93392593 -0.860857 0.191797 0.471316
0.24293417 -1.73665142 0.92581594 0.121743 -0.875115 0.468351
0.17866957 -1.81108713 0.79203147 0.091681 -0.912707 0.398197
1.46032107 -0.97526103 0.92837560 0.735238 -0.490709 0.467578
1.66501009 -0.59605080 0.89950508 0.838086 -0.300094 0.455583
1.70492959 -0.42993465 0.94021916 0.854875 -0.215603 0.471915
1.82037950 0.38184857 0.69793028 0.916067 0.192331 0.351895
-0.66661942 1.75416899 0.63524139 -0.335416 0.885921 0.320375
-1.43832946 1.16123283 0.71762973 -0.725959 0.585662 0.360533
-1.86571360 0.49185136 0.52171701 -0.933868 0.245755 0.259798
-1.77395165 -0.60355610 0.65264273 -0.894675 -0.302195 0.328990
-1.02784073 -1.61712956 0.53742546 -0.516349 -0.812743 0.269874
-0.46616197 -1.83755159 0.61464298 -0.233138 -0.922541 0.307514
1.90961146 0.35016835 0.39768374 0.963746 0.176534 0.200072
1.07138753 1.59570682 0.50316423 0.539547 0.803878 0.250337
0.20913872 1.90806270 0.49881184 0.104345 0.962294 0.251201
-0.58927786 1.88237238 0.26781508 -0.294023 0.946512 0.132914
-1.59525239 1.07608235 0.49050042 -0.803149 0.542164 0.247003
-1.82708931 0.69851351 0.31483215 -0.922738 0.351453 0.158224
-1.81575012 -0.68558443 0.39304167 -0.916871 -0.346500 0.198204
-1.71506333 -0.90415269 0.44060487 -0.862890 -0.454705 0.220600
-0.79367548 -1.75876439 0.45025560 -0.400417 -0.888009 0.226066
-0.39916337 -1.88155854 0.50628793 -0.200771 -0.946493 0.252671
-0.02804530 -1.96638739 0.32545274 -0.012489 -0.986652 0.162361
0.51882041 -1.90749407 0.28684795 0.258439 -0.955562 0.141810
1.96061957 0.24127129 0.11620426 0.990783 0.122277 0.058281
1.26419067 1.52401245 0.06492129 0.637493 0.769776 0.032367
0.60515797 1.89511740 0.00685763 0.303660 0.952780 0.001229
-1.76664066 0.88850993 0.16479036 -0.890028 0.448485 0.081921
-1.83134961 -0.72087079 0.23203090 -0.924106 -0.363875 0.116715
-1.65774953 -1.07424545 0.21158597 -0.835104 -0.539851 0.105654
-1.48436618 -1.31163049 0.10453138 -0.748959 -0.660511 0.052784
-0.89248687 -1.77180505 0.06794708 -0.449644 -0.892577 0.033556
-0.18115908 -1.96028769 0.24201249 -0.090296 -0.988563 0.120785
1.15511370 -1.59763205 0.18796173 0.583578 -0.806583 0.094126
1.20970333 -1.56985521 0.01568263 0.612020 -0.790812 0.006877
1.48496413 -1.29428971 0.25968140 0.748683 -0.650054 0.130011
1.65476441 1.08408225 -0.15587933 0.833876 0.545939 -0.081249
0.52831215 1.92509115 -0.03325617 0.264517 0.964208 -0.018285
-0.26121041 1.96497345 -0.00972693 -0.133389 0.991048 -0.005512
-1.35707891 1.45498061 -0.03752890 -0.681320 0.731685 -0.020985
-1.58266163 1.17691875 -0.16646151 -0.799678 0.594336 -0.085318
-1.73540354 0.99150562 -0.00235632 -0.868817 0.495132 -0.001335
-1.99015749 0.07368037 -0.00217065 -0.999367 0.035439 -0.003038
-1.97555494 0.13411950 -0.10356423 -0.996364 0.066424 -0.053357
-1.98632813 -0.01694096 -0.17456634 -0.996020 -0.009608 -0.088606
-1.45315778 -1.35843110 -0.04711309 -0.729022 -0.684073 -0.023879
-0.44071716 -1.92868376 -0.20283754 -0.220734 -0.969968 -0.102168
0.32947040 -1.95658672 -0.00057560 0.167869 -0.985809 -0.001127
0.74972665 -1.82695270 -0.12461182 0.379601 -0.923030 -0.062601
1.08241999 -1.66209650 -0.08193419 0.544822 -0.837438 -0.043196
1.31134069 -1.47973287 -0.16381116 0.661268 -0.745562 -0.082840
1.46327269 -1.33129942 -0.17779821 0.737068 -0.669929 -0.089032
1.91435707 0.31472456 -0.39728579 0.966661 0.159169 -0.200579
1.07008815 1.60515535 -0.46916491 0.539329 0.808221 -0.236439
0.49670288 1.90167999 -0.34057304 0.248132 0.953632 -0.170339
-0.00541767 1.93406427 -0.50292921 -0.003588 0.967624 -0.252372
-1.68959415 0.98798192 -0.38292909 -0.847822 0.493687 -0.193574
-1.95059073 0.24421176 -0.26179627 -0.983703 0.122207 -0.131886
-1.83784962 -0.67202383 -0.31582528 -0.927496 -0.337903 -0.159913
-1.45343924 -1.29461634 -0.38641328 -0.732785 -0.652564 -0.192838
-0.03349870 -1.97238123 -0.29171088 -0.014599 -0.989344 -0.144864
1.90374732 0.08472686 -0.56757057 0.957556 0.043925 -0.284882
1.63054860 0.88457638 -0.72676367 0.818899 0.443636 -0.364132
1.02431071 1.56610012 -0.66410315 0.516513 0.788362 -0.334214
0.37388954 1.87008739 -0.55458212 0.188326 0.941628 -0.279052
-1.52334201 1.03647804 -0.74288875 -0.767175 0.520641 -0.374667
-1.89007604 -0.12213971 -0.59333497 -0.952299 -0.062803 -0.298635
-0.59912103 -1.81237864 -0.55219817 -0.301154 -0.912190 -0.277876
-0.34857440 -1.85163939 -0.61874652 -0.176171 -0.933568 -0.312114
0.60411209 -1.75346386 -0.70825267 0.303435 -0.883131 -0.357781
1.87177479 -0.28065345 -0.58577144 0.944896 -0.141532 -0.295196
1.71362638 0.39553827 -0.93176621 0.860291 0.198299 -0.469656
1.57646203 0.75554425 -0.94199049 0.794233 0.378590 -0.475251
0.31092054 1.77456534 -0.83078420 0.156565 0.894861 -0.417985
-0.44924459 1.70687354 -0.93112195 -0.225420 0.854779 -0.467481
-0.84021205 1.53077173 -0.96205795 -0.419066 0.768015 -0.484290
-0.93942153 1.46178675 -0.97062141 -0.470914 0.735286 -0.487437
-1.45288968 1.07484722 -0.81643969 -0.732301 0.541409 -0.413051
-1.77016389 0.12924592 -0.88821012 -0.891748 0.064381 -0.447929
-1.41512418 -0.99399412 -0.97838950 -0.710544 -0.500875 -0.494219
0.87856299 -1.49529350 -0.99202627 0.438872 -0.747891 -0.498046
1.62589991 -0.70524466 -0.88794208 0.820421 -0.353876 -0.449089
1.65116799 -0.65379006 -0.88046890 0.833634 -0.328116 -0.444291
1.40160060 0.81530821 -1.16444731 0.702270 0.408143 -0.583297
0.47731024 1.64555895 -1.02154970 0.238847 0.824406 -0.513135
0.21368383 1.60932386 -1.14157128 0.106300 0.811086 -0.575187
-1.06319785 1.24719739 -1.12156284 -0.535556 0.626787 -0.565966
-1.20885944 1.12570274 -1.11003745 -0.606243 0.565715 -0.558960
-1.60815132 0.08747226 -1.16819382 -0.807423 0.043531 -0.588365
1.47312033 -0.58916593 -1.19741964 0.740707 -0.295963 -0.603124
0.51123810 1.36376405 -1.35270369 0.258340 0.686266 -0.679926
-0.56536627 1.33434737 -1.36013746 -0.283711 0.671610 -0.684433
-0.79858994 1.34927869 -1.23653054 -0.399259 0.674267 -0.621254
-1.44980776 0.02483540 -1.36989772 -0.727612 0.012521 -0.685875
-1.40323544 -0.17585339 -1.40033257 -0.705752 -0.089132 -0.702830
0.28906688 -1.48450899 -1.29066205 0.146201 -0.746075 -0.649613
0.78509986 -1.18672943 -1.39429402 0.393944 -0.595037 -0.700528
1.15590882 -1.01662147 -1.26031673 0.580704 -0.510009 -0.634566
1.16179323 -0.86428314 -1.36160696 0.583470 -0.433862 -0.686533
1.36419964 0.02091120 -1.45566022 0.683008 0.012519 -0.730304
1.23225927 0.21402664 -1.54907262 0.619110 0.107352 -0.777932
1.16296923 0.44755596 -1.55255556 0.584399 0.224769 -0.779716
0.58872920 1.16739035 -1.50115514 0.295951 0.587102 -0.753475
0.11925186 1.21187794 -1.57788885 0.058450 0.608737 -0.791216
-0.15113375 1.35555720 -1.44820452 -0.077000 0.681379 -0.727869
-0.62161756 1.21522236 -1.45093346 -0.311334 0.611377 -0.727522
-1.02604246 -0.84843695 -1.47755122 -0.515649 -0.426687 -0.742996
-0.85239518 -1.04045093 -1.46530855 -0.427310 -0.523000 -0.737480
-0.38237324 -1.26898313 -1.48798382 -0.192177 -0.638028 -0.745647
-0.26013252 -1.35860002 -1.43295157 -0.130279 -0.681343 -0.720277
0.07896338 -1.29122365 -1.51295590 0.041017 -0.649195 -0.759515
1.06145799 0.10108598 -1.68209374 0.534173 0.051604 -0.843799
0.54805905 0.87884754 -1.70547795 0.274684 0.440415 -0.854742
-0.64880377 0.83976358 -1.68504250 -0.325621 0.422217 -0.845993
-0.72237313 0.70947540 -1.72291648 -0.362153 0.355989 -0.861462
-1.06560516 0.39684165 -1.63438904 -0.535555 0.198747 -0.820780
0.16726267 -1.00780201 -1.71212399 0.083490 -0.505188 -0.858961
0.53654820 0.69414741 -1.78880966 0.267910 0.347839 -0.898461
0.44537997 0.77601111 -1.78381264 0.222281 0.390096 -0.893541
-0.66776884 0.40361795 -1.83947015 -0.334449 0.200669 -0.920802
-0.83328217 0.07049775 -1.80969000 -0.418536 0.035874 -0.907492
-0.84248525 -0.10490061 -1.80291796 -0.422152 -0.052600 -0.904998
-0.51440418 -0.62634575 -1.82227039 -0.257073 -0.315169 -0.913554
0.07661560 -0.81182635 -1.81987357 0.038418 -0.406699 -0.912754
0.52997857 -0.60533339 -1.82584620 0.265432 -0.303143 -0.915232
-0.24807128 0.57360375 -1.89361978 -0.123511 0.288192 -0.949574
-0.57526642 0.43661207 -1.86030304 -0.288298 0.217982 -0.932399
-0.58247280 0.05378903 -1.90743947 -0.292151 0.026107 -0.956016
-0.66653675 -0.28149903 -1.85984337 -0.333566 -0.141388 -0.932064
0.72432554 -0.11011617 -1.85676968 0.361982 -0.053968 -0.930622
0.24932444 0.33839828 -1.95050240 0.125435 0.170145 -0.977403
-0.47427860 -0.03515347 -1.93955588 -0.238268 -0.017960 -0.971033
0.16977717 0.05666465 -1.98819709 0.085796 0.029323 -0.995881
-0.14447102 -0.13268912 -1.98708284 -0.071950 -0.067522 -0.995120
