//X Y Z Nx Ny Nz
199
1.53735590 0.10673624 -2.50000000 0.000978 0.000978 -0.999999
0.44836867 0.19524117 -2.50000000 0.000978 0.000978 -0.999999
0.48816413 0.38638377 -2.50000000 0.000978 0.000978 -0.999999
1.28032851 1.33667254 -2.50000000 0.000978 0.000978 -0.999999
0.84943825 1.62602019 -2.50000000 0.000978 0.000978 -0.999999
0.63757432 1.17158616 -2.50000000 0.000978 0.000978 -0.999999
0.13106316 0.89941669 -2.50000000 0.000978 0.000978 -0.999999
-0.06473939 1.11939168 -2.50000000 0.000978 0.000978 -0.999999
-0.04697024 0.58141190 -2.50000000 0.000978 0.000978 -0.999999
-0.68286401 1.44917464 -2.50000000 0.000978 0.000978 -0.999999
-0.65121222 0.70662367 -2.50000000 0.000978 0.000978 -0.999999
-1.28418159 1.23296130 -2.50000000 0.000978 0.000978 -0.999999
-1.40653920 0.58951229 -2.50000000 0.000978 0.000978 -0.999999
-0.20251498 0.00733610 -2.50000000 0.000978 0.000978 -0.999999
-1.84310651 -0.15210719 -2.50000000 0.000978 0.000978 -0.999999
-1.41292369 -0.74594647 -2.50000000 0.000978 0.000978 -0.999999
-0.44719297 -0.26275966 -2.50000000 0.000978 0.000978 -0.999999
-0.84589118 -1.29268706 -2.50000000 0.000978 0.000978 -0.999999
-0.51430571 -0.97364819 -2.50000000 0.000978 0.000978 -0.999999
-0.49370912 -1.90248632 -2.50000000 0.000978 0.000978 -0.999999
-0.02537060 -0.97553384 -2.50000000 0.000978 0.000978 -0.999999
0.00090089 -1.04968858 -2.50000000 0.000978 0.000978 -0.999999
0.54678631 -1.76472199 -2.50000000 0.000978 0.000978 -0.999999
0.62755859 -1.08202195 -2.50000000 0.000978 0.000978 -0.999999
0.50500947 -0.30539423 -2.50000000 0.000978 0.000978 -0.999999
0.36184171 -0.24703959 -2.50000000 0.000978 0.000978 -0.999999
1.40415394 -0.54511565 -2.50000000 0.000978 0.000978 -0.999999
0.81194884 -0.08026591 -2.50000000 0.000978 0.000978 -0.999999
1.70774543 0.08368991 2.50000000 0.000978 0.000978 0.999999
1.23879421 0.59757787 2.50000000 0.000978 0.000978 0.999999
0.71721560 0.46241567 2.50000000 0.000978 0.000978 0.999999
0.82402718 1.02058458 2.50000000 0.000978 0.000978 0.999999
0.58361548 1.44567955 2.50000000 0.000978 0.000978 0.999999
0.18815486 0.90345210 2.50000000 0.000978 0.000978 0.999999
-0.33832002 1.30606055 2.50000000 0.000978 0.000978 0.999999
-0.50068796 1.79316151 2.50000000 0.000978 0.000978 0.999999
-0.35485911 0.45772445 2.50000000 0.000978 0.000978 0.999999
-1.05621803 0.96122974 2.50000000 0.000978 0.000978 0.999999
-1.55163407 0.61777997 2.50000000 0.000978 0.000978 0.999999
-0.39713198 0.22861227 2.50000000 0.000978 0.000978 0.999999
-1.54803443 0.16919500 2.50000000 0.000978 0.000978 0.999999
-1.66747642 -0.01084350 2.50000000 0.000978 0.000978 0.999999
-1.21826637 -0.43982524 2.50000000 0.000978 0.000978 0.999999
-1.35351336 -1.30444992 2.50000000 0.000978 0.000978 0.999999
-0.63889182 -0.70398492 2.50000000 0.000978 0.000978 0.999999
-0.09955190 -0.15789956 2.50000000 0.000978 0.000978 0.999999
-0.44646430 -1.16884327 2.50000000 0.000978 0.000978 0.999999
-0.37155035 -1.85198724 2.50000000 0.000978 0.000978 0.999999
0.05764219 -0.78074020 2.50000000 0.000978 0.000978 0.999999
0.31458491 -0.92172432 2.50000000 0.000978 0.000978 0.999999
1.14946735 -1.24213171 2.50000000 0.000978 0.000978 0.999999
1.39813793 -0.89259845 2.50000000 0.000978 0.000978 0.999999
1.36834741 -0.54884964 2.50000000 0.000978 0.000978 0.999999
1.83393538 -0.37319928 2.50000000 0.000978 0.000978 0.999999
1.34300232 -0.02763757 2.50000000 0.000978 0.000978 0.999999
1.98456848 0.11721391 0.66287065 0.998260 0.058965 0.001034
1.97397399 0.19768751 -0.43774939 0.995026 0.099610 0.001071
1.94294655 0.43336377 -2.49054241 0.975828 0.218539 0.001169
1.94662690 0.40540797 2.01461077 0.978855 0.204554 0.001156
1.93422818 0.49958593 0.15720582 0.967932 0.251210 0.001191
1.93409705 0.50058228 -1.94463301 0.967932 0.251210 0.001191
1.84937561 0.71675271 -1.06874275 0.931838 0.362873 0.001264
1.92868972 0.52527171 -1.17139649 0.964763 0.263117 0.001201
1.85463405 0.70405769 -1.36252975 0.935026 0.354578 0.001262
1.88728607 0.62522888 1.54020858 0.948930 0.315485 0.001237
1.81414390 0.80180973 0.51867139 0.914819 0.403862 0.001290
1.79729342 0.84249026 1.59353375 0.905318 0.424733 0.001299
1.63071275 1.13206625 -1.67005706 0.821210 0.570625 0.001362
1.63727069 1.12351978 -2.16132355 0.824239 0.566240 0.001358
1.69026911 1.05445087 -0.79381871 0.848073 0.529877 0.001348
1.42362833 1.40194392 1.17434323 0.712619 0.701550 0.001384
1.54012012 1.25012898 1.79967451 0.776155 0.630540 0.001374
1.50395906 1.29725492 0.54682517 0.757597 0.652721 0.001380
1.38839972 1.43402123 -0.38754964 0.695951 0.718088 0.001384
1.09019756 1.66283977 -1.85935950 0.548745 0.835989 0.001355
1.24405169 1.54478335 -2.09461474 0.627537 0.778585 0.001373
1.08908463 1.66369390 -0.84732175 0.547504 0.836802 0.001352
1.37830436 1.44176757 2.15666890 0.691755 0.722131 0.001381
1.04301691 1.69904280 -0.17211390 0.523571 0.851981 0.001346
0.94221419 1.75598657 0.60686398 0.472993 0.881065 0.001325
0.95883417 1.74910235 -2.30859709 0.481358 0.876523 0.001326
0.96392173 1.74699497 -0.55969250 0.482479 0.875906 0.001329
0.84085405 1.79797125 2.26824307 0.424733 0.905318 0.001299
0.54626888 1.91999245 2.21946073 0.274561 0.961569 0.001210
0.83833802 1.79901350 1.07717586 0.422600 0.906315 0.001300
0.30770230 1.95949018 -1.12563539 0.155160 0.987889 0.001116
0.41812682 1.94495249 -2.21810365 0.210402 0.977614 0.001162
0.36856300 1.95147777 -2.18831754 0.186011 0.982547 0.001141
0.11611723 1.98471284 -0.45446491 0.058843 0.998267 0.001032
0.05347493 1.99295986 1.86528635 0.025067 0.999685 0.001003
0.04952282 1.99348021 -0.19865704 0.025017 0.999686 0.001001
-0.17701085 1.97669613 -1.10340369 -0.090153 0.995927 0.001061
-0.13004972 1.98287868 -0.39950252 -0.065552 0.997849 0.001041
-0.32097816 1.95774245 -1.60870373 -0.162760 0.986665 0.001122
-0.43619579 1.94257379 -0.82856274 -0.220763 0.975327 0.001168
-0.44397527 1.94154954 0.39912701 -0.224003 0.974588 0.001173
-0.36811563 1.95153666 1.84165919 -0.186429 0.982468 0.001144
-0.57725519 1.90715754 -0.53509462 -0.291258 0.956644 0.001219
-0.64734656 1.87812471 -0.54408300 -0.326641 0.945148 0.001242
-0.68236202 1.86362088 -0.14363813 -0.344659 0.938727 0.001253
-0.95255744 1.75170219 0.19949722 -0.478202 0.878249 0.001325
-0.91596925 1.76685750 2.14287567 -0.460355 0.887734 0.001319
-0.88270271 1.78063691 -0.72645521 -0.444588 0.895734 0.001311
-1.07331777 1.67579210 -1.35129344 -0.539322 0.842099 0.001352
-1.17162311 1.60035980 -1.63678527 -0.591008 0.806665 0.001365
-1.09066093 1.66248417 -1.91212201 -0.548745 0.835989 0.001355
-1.32513547 1.48256552 -1.30604219 -0.665988 0.745961 0.001379
-1.34100580 1.47038782 1.87360477 -0.673154 0.739501 0.001382
-1.24354684 1.54517078 0.03125954 -0.627537 0.778585 0.001373
-1.58448994 1.19230509 -0.34256172 -0.798847 0.601533 0.001370
-1.51925206 1.27732468 -1.10681510 -0.765161 0.643838 0.001379
-1.60192192 1.16958725 -0.92262495 -0.807966 0.589227 0.001367
-1.51552391 1.28218341 1.22529614 -0.763803 0.645448 0.001376
-1.57120478 1.20961869 1.89584637 -0.791857 0.610705 0.001372
-1.68338597 1.06342137 -1.42503381 -0.844879 0.534955 0.001347
-1.89221776 0.61332273 -1.63699818 -0.951115 0.308835 0.001230
-1.80826604 0.81600004 -2.16221762 -0.911072 0.412244 0.001292
-1.74018800 0.98035502 1.88497686 -0.871255 0.490829 0.001330
-1.86357117 0.68248165 1.49220896 -0.938727 0.344659 0.001253
-1.77201486 0.90351826 1.78783917 -0.890978 0.454044 0.001316
-1.78720927 0.86683553 1.89754820 -0.899331 0.437266 0.001305
-1.95574808 0.33612698 0.41865396 -0.985368 0.170436 0.001129
-1.95092487 0.37276286 0.34868360 -0.982047 0.188635 0.001143
-1.98329520 0.12688532 -2.20705247 -0.997991 0.063348 0.001038
-1.96080434 0.29772037 0.85759771 -0.988665 0.150135 0.001112
-1.95452416 0.34542274 1.77421725 -0.984851 0.173397 0.001133
-1.96702397 0.25047708 0.38374472 -0.992057 0.125785 0.001094
-1.99226570 -0.05874812 -0.10577035 -0.999513 -0.031203 0.001007
-1.99323845 -0.05135941 -0.04637289 -0.999633 -0.027071 0.001003
-1.96257114 -0.28430048 -1.76018238 -0.989410 -0.145143 0.001108
-1.97426224 -0.19549821 2.40594888 -0.995047 -0.099398 0.001069
-1.94149363 -0.44440061 2.01652694 -0.974588 -0.224003 0.001173
-1.97956622 -0.15521017 1.26176822 -0.996878 -0.078950 0.001053
-1.89578879 -0.60470158 -2.17011094 -0.952780 -0.303660 0.001229
-1.92751062 -0.52811831 -1.49568212 -0.964151 -0.265352 0.001201
-1.91627264 -0.55524904 1.73187208 -0.960094 -0.279674 0.001211
-1.85232043 -0.70964336 1.15410578 -0.933865 -0.357624 0.001264
-1.86907089 -0.66920424 2.05164623 -0.940919 -0.338631 0.001250
-1.75022197 -0.95613068 1.79585075 -0.877641 -0.479317 0.001328
-1.68111122 -1.06638575 1.67603683 -0.844105 -0.536176 0.001351
-1.70835161 -1.03088546 -0.81976759 -0.855828 -0.517259 0.001344
-1.68731201 -1.05830467 -1.61813164 -0.846861 -0.531813 0.001346
-1.54282975 -1.24659765 0.70627236 -0.777500 -0.628881 0.001376
-1.60176921 -1.16978621 0.85861313 -0.806665 -0.591008 0.001365
-1.51286292 -1.28565109 -0.23548388 -0.761293 -0.648407 0.001377
-1.37958097 -1.44078815 1.61896563 -0.690311 -0.723512 0.001383
-1.17947352 -1.59433591 -1.71286428 -0.594083 -0.804402 0.001366
-1.13649666 -1.62731314 -1.41507936 -0.572458 -0.819933 0.001360
-1.31126630 -1.49320769 2.17092657 -0.658602 -0.752490 0.001381
-1.07101595 -1.67755842 -1.60144901 -0.538096 -0.842882 0.001349
-1.00325048 -1.72955656 1.65341353 -0.501457 -0.865181 0.001337
-0.91043878 -1.76914835 0.54462385 -0.457199 -0.889364 0.001318
-0.77060848 -1.82706785 -2.20788908 -0.388343 -0.921514 0.001282
-0.97800684 -1.74116063 0.15941000 -0.490829 -0.871255 0.001330
-0.59164184 -1.90119839 0.02971721 -0.297786 -0.954632 0.001225
-0.59605610 -1.89936984 2.12485647 -0.300017 -0.953933 0.001225
-0.70736879 -1.85326266 1.11732852 -0.357624 -0.933865 0.001264
-0.19116375 -1.97483289 -1.05154276 -0.097074 -0.995277 0.001067
-0.47263312 -1.93777668 0.37710094 -0.237800 -0.971313 0.001183
-0.23919711 -1.96850920 -1.97992337 -0.120688 -0.992690 0.001087
-0.16067407 -1.97884691 0.62808514 -0.081042 -0.996710 0.001052
-0.07444802 -1.99019873 2.27689910 -0.037461 -0.999298 0.001012
-0.17623776 -1.97679794 2.41780519 -0.088049 -0.996116 0.001061
0.10938524 -1.98559916 -0.52630591 0.056668 -0.998393 0.001030
0.08893958 -1.98829091 -2.48403049 0.045917 -0.998945 0.001020
0.11046341 -1.98545718 0.48434114 0.056668 -0.998393 0.001030
0.38191071 -1.94972038 2.28588438 0.193909 -0.981019 0.001147
0.29519171 -1.96113729 1.40839958 0.150135 -0.988665 0.001112
0.31503132 -1.95852530 1.83137918 0.160219 -0.987081 0.001120
0.55183858 -1.91768527 -0.18865013 0.277440 -0.960742 0.001212
0.72920334 -1.84421837 -1.94151831 0.368984 -0.929435 0.001268
0.62202418 -1.88861346 0.57717586 0.312519 -0.949911 0.001235
0.84742206 -1.79525065 -0.37121177 0.427862 -0.903843 0.001300
0.93771511 -1.75785005 -1.77573967 0.471891 -0.881656 0.001322
0.96951807 -1.74467683 -0.91725397 0.485642 -0.874156 0.001331
1.01024568 -1.72418892 -0.55266023 0.506611 -0.862174 0.001337
1.24816668 -1.54162562 -2.08318067 0.630540 -0.776155 0.001374
1.04369366 -1.69852340 -1.21670711 0.523571 -0.851981 0.001346
1.11241221 -1.64579380 1.69661021 0.560008 -0.828486 0.001356
1.13329709 -1.62976837 1.41800189 0.572458 -0.819933 0.001360
1.24641359 -1.54297078 2.06625080 0.628881 -0.777500 0.001376
1.51964557 -1.27681196 0.32637644 0.766300 -0.642481 0.001376
1.42230797 -1.40366483 0.73063326 0.712619 -0.701550 0.001384
1.43963766 -1.38108027 -0.79030919 0.723512 -0.690311 0.001383
1.71779406 -1.01857972 -1.65838909 0.860313 -0.509765 0.001338
1.56006896 -1.22413111 0.74379945 0.787127 -0.616789 0.001374
1.65783799 -1.09671593 -0.11145377 0.833922 -0.551880 0.001356
1.79961836 -0.83687758 -1.23239207 0.906315 -0.422600 0.001300
1.74174345 -0.97660023 -1.53077316 0.872392 -0.488806 0.001332
1.84111345 -0.73669946 -0.44295192 0.928213 -0.372047 0.001270
1.86482906 -0.67944479 0.27281141 0.939536 -0.342448 0.001254
1.88230765 -0.63724786 -1.09922123 0.946931 -0.321435 0.001241
1.91876638 -0.54922855 2.44755912 0.960928 -0.276796 0.001209
1.95021021 -0.37819159 -1.25139821 0.981537 -0.191268 0.001145
1.95681298 -0.32803777 -1.83184862 0.986179 -0.165678 0.001127
1.95109701 -0.37145558 -0.66129029 0.982468 -0.186429 0.001144
1.98447740 -0.11790653 0.47507286 0.998267 -0.058843 0.001032
1.97711515 -0.17382762 0.01005912 0.996132 -0.087863 0.001059
1.94762111 -0.39785767 1.44050610 0.979863 -0.199666 0.001154
