//X Y Z Nx Ny Nz
204
0.73473883 0.17171642 -2.50000000 0.000978 0.000978 -0.999999
0.76890945 0.31002337 -2.50000000 0.000978 0.000978 -0.999999
1.07757580 1.02167666 -2.50000000 0.000978 0.000978 -0.999999
1.12404275 0.79594302 -2.50000000 0.000978 0.000978 -0.999999
1.03792226 1.65544176 -2.50000000 0.000978 0.000978 -0.999999
0.74201643 1.41110635 -2.50000000 0.000978 0.000978 -0.999999
0.32006696 1.78990507 -2.50000000 0.000978 0.000978 -0.999999
-0.06381565 0.73621774 -2.50000000 0.000978 0.000978 -0.999999
-0.62282068 1.59041047 -2.50000000 0.000978 0.000978 -0.999999
-0.47785836 1.67636180 -2.50000000 0.000978 0.000978 -0.999999
-1.21442378 1.31422460 -2.50000000 0.000978 0.000978 -0.999999
-1.13848805 1.00589192 -2.50000000 0.000978 0.000978 -0.999999
-0.67636192 0.24138898 -2.50000000 0.000978 0.000978 -0.999999
-1.47013855 0.18522629 -2.50000000 0.000978 0.000978 -0.999999
-1.22864068 -0.05920471 -2.50000000 0.000978 0.000978 -0.999999
-0.37979168 -0.17431623 -2.50000000 0.000978 0.000978 -0.999999
-1.41221535 -0.73373622 -2.50000000 0.000978 0.000978 -0.999999
-0.70435178 -0.58503795 -2.50000000 0.000978 0.000978 -0.999999
-0.38208956 -0.48765725 -2.50000000 0.000978 0.000978 -0.999999
-0.62016171 -1.08807206 -2.50000000 0.000978 0.000978 -0.999999
-0.14314714 -0.43848029 -2.50000000 0.000978 0.000978 -0.999999
-0.22440906 -1.13086128 -2.50000000 0.000978 0.000978 -0.999999
0.20966467 -1.27994704 -2.50000000 0.000978 0.000978 -0.999999
0.55933082 -1.54101658 -2.50000000 0.000978 0.000978 -0.999999
0.97356486 -1.10007405 -2.50000000 0.000978 0.000978 -0.999999
1.41125488 -0.87726736 -2.50000000 0.000978 0.000978 -0.999999
0.91346443 -0.37033764 -2.50000000 0.000978 0.000978 -0.999999
1.66952980 -0.57808501 -2.50000000 0.000978 0.000978 -0.999999
0.07462887 -0.01530881 -2.50000000 0.000978 0.000978 -0.999999
0.81003892 -0.19405802 -2.50000000 0.000978 0.000978 -0.999999
1.25394070 0.11727918 2.50000000 0.000978 0.000978 0.999999
1.61158442 0.50862497 2.50000000 0.000978 0.000978 0.999999
0.90929323 0.86335814 2.50000000 0.000978 0.000978 0.999999
0.70344335 0.96303153 2.50000000 0.000978 0.000978 0.999999
0.59793437 0.61239678 2.50000000 0.000978 0.000978 0.999999
0.73193216 1.83594143 2.50000000 0.000978 0.000978 0.999999
0.28181097 1.91876268 2.50000000 0.000978 0.000978 0.999999
-0.45644641 1.77254844 2.50000000 0.000978 0.000978 0.999999
-0.06779713 0.86809260 2.50000000 0.000978 0.000978 0.999999
-0.54668409 1.43233705 2.50000000 0.000978 0.000978 0.999999
-0.97607052 1.35282791 2.50000000 0.000978 0.000978 0.999999
-1.40549552 0.86640966 2.50000000 0.000978 0.000978 0.999999
-0.74766570 0.38865125 2.50000000 0.000978 0.000978 0.999999
-1.44652653 0.37882170 2.50000000 0.000978 0.000978 0.999999
-1.90882528 -0.49884805 2.50000000 0.000978 0.000978 0.999999
-1.22669744 -0.62234795 2.50000000 0.000978 0.000978 0.999999
-0.47326261 -0.40710878 2.50000000 0.000978 0.000978 0.999999
-0.69960421 -1.11869168 2.50000000 0.000978 0.000978 0.999999
-0.14191306 -0.36165673 2.50000000 0.000978 0.000978 0.999999
-0.29087117 -0.79422706 2.50000000 0.000978 0.000978 0.999999
-0.26659074 -1.18203318 2.50000000 0.000978 0.000978 0.999999
-0.36949527 -1.79595518 2.50000000 0.000978 0.000978 0.999999
0.37310985 -1.39522433 2.50000000 0.000978 0.000978 0.999999
0.09096088 -0.19850636 2.50000000 0.000978 0.000978 0.999999
0.97996783 -1.10994470 2.50000000 0.000978 0.000978 0.999999
0.87625974 -0.91200262 2.50000000 0.000978 0.000978 0.999999
0.93676388 -0.83550996 2.50000000 0.000978 0.000978 0.999999
1.24227083 -0.71310276 2.50000000 0.000978 0.000978 0.999999
1.58443713 -0.03781386 2.50000000 0.000978 0.000978 0.999999
0.41987839 -0.00129892 2.50000000 0.000978 0.000978 0.999999
1.96771884 0.24519928 -1.99662137 0.992091 0.125512 0.001091
1.96099019 0.29630873 -1.65198874 0.988615 0.150466 0.001115
1.96814716 0.24194661 -1.30531025 0.992394 0.123096 0.001089
1.96873569 0.23747557 0.20646477 0.992690 0.120688 0.001087
1.95411575 0.34852520 -0.15139079 0.984392 0.175987 0.001135
1.94870663 0.38961098 2.31435490 0.980402 0.197002 0.001152
1.83564365 0.74990463 -2.09326172 0.925363 0.379080 0.001276
1.90358853 0.58587110 -1.50815368 0.955540 0.294859 0.001223
1.91837859 0.55016488 1.49472237 0.960928 0.276796 0.001209
1.84074235 0.73759526 1.69174254 0.927860 0.372926 0.001273
1.77860045 0.88761914 1.33354378 0.894688 0.446689 0.001310
1.82284153 0.78081173 -0.19016838 0.918878 0.394539 0.001285
1.63559306 1.12570620 -0.48126054 0.823366 0.567510 0.001361
1.66250038 1.09063983 -1.31651771 0.835989 0.548745 0.001355
1.50485611 1.29608583 -1.56175256 0.757597 0.652721 0.001380
1.45853090 1.35645795 0.44919515 0.732842 0.680398 0.001380
1.55237901 1.23415279 2.03923059 0.782341 0.622848 0.001375
1.48369730 1.32366061 1.46106029 0.745961 0.665988 0.001379
1.25849128 1.53370345 -0.10478354 0.634886 0.772605 0.001377
1.17705941 1.59618843 -0.79411495 0.594083 0.804402 0.001366
1.39015305 1.43267584 0.68261385 0.695951 0.718088 0.001384
1.18549979 1.58971179 -0.16655588 0.598464 0.801148 0.001369
1.00468075 1.72845912 -1.19452453 0.503455 0.864020 0.001335
1.01227117 1.72263479 0.85629523 0.506611 0.862174 0.001337
0.78707916 1.82024550 -2.28363371 0.397643 0.917539 0.001287
0.92928731 1.76134098 1.25679231 0.466672 0.884429 0.001322
0.96536261 1.74639809 1.62752724 0.484515 0.874782 0.001327
0.61717397 1.89062262 2.31505108 0.311788 0.950151 0.001232
0.83780545 1.79923391 2.41408229 0.422600 0.906315 0.001300
0.82484573 1.80460215 1.62271404 0.416342 0.909207 0.001297
0.30303937 1.96010411 -0.96164203 0.152980 0.988229 0.001117
0.20939481 1.97243261 -1.79126966 0.104293 0.994546 0.001075
0.49235132 1.93518066 -0.26426172 0.248404 0.968656 0.001189
0.18116352 1.97614944 -0.46826577 0.090344 0.995910 0.001063
0.08156560 1.98926175 -1.53128433 0.039643 0.999213 0.001016
0.21144685 1.97216249 1.49089777 0.106419 0.994321 0.001075
-0.09483287 1.98751497 -1.04591489 -0.048149 0.998840 0.001024
-0.28388894 1.96262527 -2.46948004 -0.145143 0.989410 0.001108
-0.27328867 1.96402085 -1.02961671 -0.138020 0.990429 0.001104
-0.26385796 1.96526241 1.44238174 -0.133100 0.991102 0.001100
-0.28711855 1.96220005 1.43544745 -0.145462 0.989363 0.001110
-0.19265306 1.97463679 1.35724235 -0.097281 0.995256 0.001069
-0.81474775 1.80878484 -1.73295951 -0.412244 0.911072 0.001292
-0.73367596 1.84236586 -1.91612613 -0.369856 0.929088 0.001271
-0.84804034 1.79499459 -1.31598246 -0.427862 0.903843 0.001300
-0.93408310 1.75935447 2.15085006 -0.469832 0.882755 0.001323
-0.71123517 1.85166121 1.34252262 -0.359825 0.933019 0.001263
-0.89270562 1.77649367 1.11325216 -0.449834 0.893111 0.001311
-1.03117979 1.70812571 0.89907527 -0.517259 0.855828 0.001344
-1.00631285 1.72720683 -0.54294252 -0.503455 0.864020 0.001335
-1.29468942 1.50592768 -2.03755474 -0.651358 0.758770 0.001377
-1.10426748 1.65204358 2.39836693 -0.555013 0.831841 0.001357
-1.15578985 1.61250901 1.91562796 -0.583045 0.812439 0.001365
-1.26558411 1.52826095 0.35742855 -0.637877 0.770137 0.001378
-1.44018960 1.38036084 -0.00377774 -0.722131 0.691755 0.001381
-1.47247982 1.33827949 -0.70719790 -0.739501 0.673154 0.001382
-1.44963443 1.36805212 1.10135889 -0.727510 0.686096 0.001380
-1.45908892 1.35573077 2.42661858 -0.732842 0.680398 0.001380
-1.64233243 1.11692333 1.70706773 -0.826370 0.563126 0.001357
-1.69989276 1.04190934 -0.63394570 -0.852716 0.522373 0.001343
-1.78895366 0.86262429 -1.49444795 -0.900357 0.435151 0.001307
-1.76304901 0.92516369 -1.15563571 -0.885003 0.465583 0.001319
-1.85990834 0.69132471 -2.38194156 -0.937307 0.348502 0.001258
-1.85230327 0.70968473 2.45113158 -0.933865 0.357624 0.001264
-1.80703449 0.81897336 1.55603790 -0.910632 0.413217 0.001295
-1.82747746 0.76961970 1.27646315 -0.921514 0.388343 0.001282
-1.95235300 0.36191511 -0.38890862 -0.983039 0.183394 0.001139
-1.93525195 0.49181077 0.32054806 -0.969226 0.246171 0.001189
-1.96072495 0.29832384 -1.84973836 -0.988615 0.150466 0.001115
-1.95521426 0.34018207 2.07342434 -0.985302 0.170816 0.001131
-1.96674538 0.25259349 2.34164643 -0.991782 0.127937 0.001093
-1.98600638 0.10629252 -0.62719083 -0.998623 0.052451 0.001028
-1.99615014 -0.02924257 -1.02364206 -0.999889 -0.014894 0.000993
-1.99381995 -0.04694207 -1.75876677 -0.999686 -0.025017 0.001001
-1.97850466 -0.16327356 -2.17149830 -0.996523 -0.083307 0.001055
-1.97202623 -0.21248172 0.52597857 -0.994066 -0.108776 0.001077
-1.93193758 -0.51698548 -1.69817686 -0.965696 -0.259673 0.001197
-1.93719542 -0.47704792 0.45838284 -0.970765 -0.240031 0.001182
-1.93108952 -0.51947808 0.49713874 -0.965534 -0.260274 0.001199
-1.90173674 -0.59034199 -2.38247991 -0.954848 -0.297091 0.001223
-1.74767447 -0.96228099 -2.16781330 -0.875906 -0.482479 0.001329
-1.83919239 -0.74133718 1.02932036 -0.926978 -0.375114 0.001272
-1.86213517 -0.68594861 1.01786804 -0.938428 -0.345472 0.001256
-1.76533246 -0.91965091 1.75185490 -0.886654 -0.462431 0.001317
-1.62215304 -1.14322150 0.09367132 -0.816854 -0.576843 0.001364
-1.64166152 -1.11779761 -1.33212829 -0.826370 -0.563126 0.001357
-1.60723305 -1.16266561 -2.09560871 -0.810210 -0.586138 0.001366
-1.57981467 -1.19839799 1.31349039 -0.796531 -0.604596 0.001371
-1.59982276 -1.17232275 0.88560760 -0.805708 -0.592312 0.001368
-1.48189092 -1.32601464 1.48983765 -0.744734 -0.667359 0.001382
-1.39761651 -1.42694890 1.14722586 -0.698755 -0.715359 0.001384
-1.40564144 -1.42079127 0.42994976 -0.701550 -0.712619 0.001384
-1.33267593 -1.47677958 -0.00865078 -0.668888 -0.743362 0.001379
-1.03318334 -1.70658827 -0.55992818 -0.517259 -0.855828 0.001344
-1.19695354 -1.58092296 2.14731359 -0.603278 -0.797530 0.001368
-1.13154149 -1.63111544 0.19604826 -0.569351 -0.822094 0.001359
-0.86792296 -1.78675890 -1.89891934 -0.437266 -0.899331 0.001305
-0.87960839 -1.78191864 -1.84049511 -0.443546 -0.896251 0.001308
-0.72440821 -1.84620464 -0.79165912 -0.365926 -0.930643 0.001266
-0.86500573 -1.78796732 2.37661839 -0.435151 -0.900357 0.001307
-0.79158044 -1.81838107 2.41277814 -0.399807 -0.916599 0.001286
-0.69656092 -1.85773933 0.65487051 -0.351537 -0.936173 0.001260
-0.31605896 -1.95839012 -0.63058782 -0.160219 -0.987081 0.001120
-0.46723080 -1.93848801 -1.96833205 -0.235025 -0.971989 0.001181
-0.17054534 -1.97754729 -2.25709963 -0.085581 -0.996331 0.001057
-0.28161374 -1.96292496 0.54204369 -0.142660 -0.989771 0.001106
-0.37560117 -1.95055115 1.66325283 -0.189060 -0.981965 0.001146
-0.32296950 -1.95748031 2.35470009 -0.163122 -0.986605 0.001125
0.12352615 -1.98373747 -1.59127784 0.063217 -0.997999 0.001036
0.09062983 -1.98806834 -2.27086592 0.046011 -0.998940 0.001022
0.13014895 -1.98286557 0.38077164 0.065552 -0.997849 0.001041
0.48903996 -1.93561661 1.14920998 0.245605 -0.969369 0.001186
0.51045763 -1.93279696 1.67897344 0.256844 -0.966452 0.001195
0.12148687 -1.98400605 1.60090208 0.061152 -0.998128 0.001036
0.65605068 -1.87451923 -1.76546431 0.330406 -0.943838 0.001247
0.70665461 -1.85355842 -1.81773698 0.356781 -0.934187 0.001261
0.57004732 -1.91014302 -1.90039802 0.286119 -0.958193 0.001218
0.82282794 -1.80543780 0.49150443 0.415362 -0.909655 0.001294
0.86331749 -1.78866661 0.98326373 0.435151 -0.900357 0.001307
0.95689344 -1.74990606 1.94002390 0.479317 -0.877641 0.001328
1.04302013 -1.69904017 -2.28902197 0.523571 -0.851981 0.001346
1.13867116 -1.62564456 -2.23662257 0.573736 -0.819039 0.001363
1.01048756 -1.72400331 0.17950153 0.506611 -0.862174 0.001337
1.38177514 -1.43910432 0.13676357 0.694569 -0.719425 0.001381
1.35292709 -1.46124017 0.40352702 0.680398 -0.732842 0.001380
1.34288907 -1.46894264 -0.18374681 0.676037 -0.736866 0.001382
1.47322643 -1.33730650 -2.29477787 0.742124 -0.670261 0.001382
1.53955197 -1.25086939 0.14521384 0.776155 -0.630540 0.001374
1.43326843 -1.38938093 1.09413147 0.719425 -0.694569 0.001381
1.56159723 -1.22213948 1.15297139 0.788169 -0.615457 0.001371
1.68833053 -1.05697727 -0.61429787 0.848073 -0.529877 0.001348
1.61536741 -1.15206468 0.41896772 0.814654 -0.579946 0.001365
1.73870242 -0.98394179 -2.35668969 0.870612 -0.491969 0.001333
1.87168169 -0.66290116 -2.34901619 0.941995 -0.335625 0.001248
1.74289179 -0.97382784 -0.62661636 0.873026 -0.487672 0.001329
1.80483913 -0.82427353 2.10222745 0.909207 -0.416342 0.001297
1.76534331 -0.91962492 2.34897995 0.886654 -0.462431 0.001317
1.83549607 -0.75026113 1.17291856 0.925363 -0.379080 0.001276
1.96520412 -0.26430076 -1.76485753 0.991102 -0.133100 0.001100
1.97575271 -0.18417621 -2.31834221 0.995717 -0.092452 0.001063
1.98645914 -0.10285297 -2.04163218 0.998734 -0.050296 0.001026
1.99827087 -0.01313484 0.19160485 0.999987 -0.004916 0.000983
1.99619675 -0.02888846 1.85160291 0.999917 -0.012883 0.000991
1.96225071 -0.28673384 0.35831189 0.989410 -0.145143 0.001108
