//X Y Z Nx Ny Nz
198
-0.42766249 0.27746689 0.50000000 0.000978 0.000978 0.999999
-0.12446308 -0.06910856 0.50000000 0.000978 0.000978 0.999999
-0.44083193 -0.32513165 0.50000000 0.000978 0.000978 0.999999
-0.40968359 0.22378600 0.50000000 0.000978 0.000978 0.999999
-0.31291327 -0.26027611 0.50000000 0.000978 0.000978 0.999999
0.33842415 0.49566782 0.50000000 0.000978 0.000978 0.999999
-0.26762447 -0.18254158 0.50000000 0.000978 0.000978 0.999999
-0.01932639 0.39567411 0.50000000 0.000978 0.000978 0.999999
-0.48661873 -0.01413888 0.50000000 0.000978 0.000978 0.999999
0.26326269 0.28708854 0.50000000 0.000978 0.000978 0.999999
-0.23190990 0.34007266 0.50000000 0.000978 0.000978 0.999999
-0.40372860 0.17252892 0.50000000 0.000978 0.000978 0.999999
-0.45026553 -0.33530480 0.50000000 0.000978 0.000978 0.999999
-0.28537080 0.18224010 0.50000000 0.000978 0.000978 0.999999
-0.39889592 -0.37765214 0.50000000 0.000978 0.000978 0.999999
-0.35513383 0.04276240 0.50000000 0.000978 0.000978 0.999999
-0.29553080 0.31059873 0.50000000 0.000978 0.000978 0.999999
0.48917294 -0.21304929 0.50000000 0.000978 0.000978 0.999999
0.38163549 0.17839479 0.50000000 0.000978 0.000978 0.999999
0.15157652 0.00316161 0.50000000 0.000978 0.000978 0.999999
-0.00258899 -0.07556185 0.50000000 0.000978 0.000978 0.999999
0.49842769 -0.30436152 0.50000000 0.000978 0.000978 0.999999
-0.21424550 -0.39569032 0.50000000 0.000978 0.000978 0.999999
-0.39253762 -0.49099317 0.50000000 0.000978 0.000978 0.999999
0.41630745 0.12770987 0.50000000 0.000978 0.000978 0.999999
0.49167445 0.41336977 0.50000000 0.000978 0.000978 0.999999
-0.03953686 -0.29221642 0.50000000 0.000978 0.000978 0.999999
0.31618223 -0.44878480 0.50000000 0.000978 0.000978 0.999999
0.27067524 0.01551199 0.50000000 0.000978 0.000978 0.999999
0.05362689 -0.18830520 0.50000000 0.000978 0.000978 0.999999
0.17920278 -0.28260571 0.50000000 0.000978 0.000978 0.999999
0.03674921 -0.24716833 0.50000000 0.000978 0.000978 0.999999
0.07383762 -0.38796309 0.50000000 0.000978 0.000978 0.999999
-0.45292377 0.03793344 -0.50000000 0.000978 -0.000978 -0.999999
0.18823540 -0.30947328 -0.50000000 0.000978 -0.000978 -0.999999
-0.25365222 -0.12130418 -0.50000000 0.000978 -0.000978 -0.999999
-0.48633790 0.38397092 -0.50000006 0.000978 -0.000978 -0.999999
-0.48624232 -0.02499858 -0.50000000 0.000978 -0.000978 -0.999999
-0.29906863 0.23030265 -0.50000006 0.000978 -0.000978 -0.999999
-0.49349135 0.35972604 -0.50000006 0.000978 -0.000978 -0.999999
0.30164313 -0.33465433 -0.50000000 0.000978 -0.000978 -0.999999
0.01756763 -0.41118473 -0.49999997 0.000978 -0.000978 -0.999999
0.39157426 -0.42401287 -0.49999997 0.000978 -0.000978 -0.999999
-0.42022809 0.09930032 -0.50000006 0.000978 -0.000978 -0.999999
-0.41685769 -0.17275354 -0.50000000 0.000978 -0.000978 -0.999999
0.16097355 -0.18891251 -0.50000000 0.000978 -0.000978 -0.999999
-0.12518319 -0.11495565 -0.49999997 0.000978 -0.000978 -0.999999
-0.36067533 0.26447961 -0.50000006 0.000978 -0.000978 -0.999999
0.35055071 -0.48316061 -0.49999997 0.000978 -0.000978 -0.999999
-0.34319282 0.27993128 -0.50000006 0.000978 -0.000978 -0.999999
-0.25093180 0.40283340 -0.50000006 0.000978 -0.000978 -0.999999
-0.23136674 0.49987599 -0.50000006 0.000978 -0.000978 -0.999999
0.17544860 -0.03680223 -0.50000000 0.000978 -0.000978 -0.999999
0.49082828 -0.05353749 -0.50000000 0.000978 -0.000978 -0.999999
0.14491254 0.39866966 -0.50000006 0.000978 -0.000978 -0.999999
0.02912323 0.37146270 -0.50000006 0.000978 -0.000978 -0.999999
0.08435275 0.46972620 -0.50000006 0.000978 -0.000978 -0.999999
0.17926678 0.43208233 -0.50000006 0.000978 -0.000978 -0.999999
0.37597823 -0.08981097 -0.50000000 0.000978 -0.000978 -0.999999
-0.06394115 0.24388131 -0.50000006 0.000978 -0.000978 -0.999999
-0.32151997 0.33981276 -0.50000006 0.000978 -0.000978 -0.999999
0.00130534 0.03743756 -0.50000000 0.000978 -0.000978 -0.999999
-0.08127505 0.12179506 -0.50000000 0.000978 -0.000978 -0.999999
0.01902136 0.04835603 -0.50000000 0.000978 -0.000978 -0.999999
0.43067446 -0.33533192 -0.49999997 0.000978 -0.000978 -0.999999
0.36885929 -0.34673953 -0.49999997 0.000978 -0.000978 -0.999999
0.18928188 0.41157234 -0.50000006 0.000978 -0.000978 -0.999999
-0.49999997 0.10208432 -0.01147217 -0.999999 0.000978 0.000978
-0.49999997 -0.19980872 -0.41117996 -0.999999 0.000978 0.000978
-0.49999997 0.06588629 -0.43033779 -0.999999 0.000978 0.000978
-0.49999997 -0.12877803 -0.36163160 -0.999999 0.000978 0.000978
-0.49999997 0.45518479 -0.16520450 -0.999999 0.000978 0.000978
-0.49999997 -0.07345146 -0.33170304 -0.999999 0.000978 0.000978
-0.49999997 0.39388409 -0.48340493 -0.999999 0.000978 0.000978
-0.50000000 0.25478768 0.22413796 -0.999999 0.000978 0.000978
-0.49999997 0.35741830 -0.40944824 -0.999999 0.000978 0.000978
-0.50000000 0.43926635 0.26052856 -0.999999 0.000978 0.000978
-0.49999997 -0.19611686 -0.49618056 -0.999999 0.000978 0.000978
-0.49999997 0.37845933 -0.23759514 -0.999999 0.000978 0.000978
-0.50000000 0.27148104 0.26716065 -0.999999 0.000978 0.000978
-0.50000000 0.43077409 0.23263967 -0.999999 0.000978 0.000978
-0.49999997 -0.07833589 -0.19814125 -0.999999 0.000978 0.000978
-0.49999997 0.10380164 -0.28484035 -0.999999 0.000978 0.000978
-0.50000000 0.30793783 0.46487892 -0.999999 0.000978 0.000978
-0.49999997 -0.24121302 -0.17544815 -0.999999 0.000978 0.000978
-0.49999997 -0.44738477 -0.24781564 -0.999999 0.000978 0.000978
-0.49999997 -0.42888004 -0.26031059 -0.999999 0.000978 0.000978
-0.49999997 -0.12234184 0.30353093 -0.999999 0.000978 0.000978
-0.50000000 -0.48857939 0.27962223 -0.999999 0.000978 0.000978
-0.49999997 -0.05065280 0.24097949 -0.999999 0.000978 0.000978
-0.49999997 -0.05954391 0.14557880 -0.999999 0.000978 0.000978
-0.50000000 -0.43775097 0.29015875 -0.999999 0.000978 0.000978
-0.50000000 -0.48331013 0.42842007 -0.999999 0.000978 0.000978
-0.50000000 -0.40112323 0.16752276 -0.999999 0.000978 0.000978
-0.50000000 0.04740134 0.23051184 -0.999999 0.000978 0.000978
-0.50000000 0.13573691 0.47508764 -0.999999 0.000978 0.000978
-0.50000000 -0.40525967 0.22788051 -0.999999 0.000978 0.000978
-0.49999997 -0.16257533 0.29545099 -0.999999 0.000978 0.000978
-0.49999997 -0.18955255 0.27348056 -0.999999 0.000978 0.000978
0.49999997 0.45799783 -0.02991962 0.999999 0.000978 -0.000978
0.50000000 -0.24796994 0.26036158 0.999999 0.000978 -0.000978
0.50000000 0.08833817 0.11373314 0.999999 0.000978 -0.000978
0.49999997 0.20733824 -0.03707927 0.999999 0.000978 -0.000978
0.50000000 -0.15753818 0.39514741 0.999999 0.000978 -0.000978
0.50000000 0.37165353 0.18009660 0.999999 0.000978 -0.000978
0.50000000 0.27129936 0.37080222 0.999999 0.000978 -0.000978
0.50000000 0.28504357 0.36535382 0.999999 0.000978 -0.000978
0.50000000 -0.28795552 0.39446080 0.999999 0.000978 -0.000978
0.50000000 0.27985862 0.13606706 0.999999 0.000978 -0.000978
0.50000000 0.48083371 0.15687156 0.999999 0.000978 -0.000978
0.50000000 -0.30293626 0.39981031 0.999999 0.000978 -0.000978
0.49999997 0.46686387 -0.29648721 0.999999 0.000978 -0.000978
0.50000000 0.26960552 0.46483681 0.999999 0.000978 -0.000978
0.50000000 0.30780646 0.05976716 0.999999 0.000978 -0.000978
0.50000000 0.11036253 0.04931816 0.999999 0.000978 -0.000978
0.49999997 -0.36169422 -0.23541263 0.999999 0.000978 -0.000978
0.49999997 -0.41599309 -0.32322952 0.999999 0.000978 -0.000978
0.50000000 -0.36008376 0.22207680 0.999999 0.000978 -0.000978
0.50000000 -0.31449470 0.00474100 0.999999 0.000978 -0.000978
0.49999997 0.01159194 -0.31401584 0.999999 0.000978 -0.000978
0.50000000 -0.35983351 0.13375838 0.999999 0.000978 -0.000978
0.50000000 -0.27936530 -0.06797193 0.999999 0.000978 -0.000978
0.50000000 -0.26318473 -0.07639194 0.999999 0.000978 -0.000978
0.50000000 -0.48952720 0.37620243 0.999999 0.000978 -0.000978
0.49999997 0.26034322 -0.34706914 0.999999 0.000978 -0.000978
0.49999997 0.16663244 -0.37403429 0.999999 0.000978 -0.000978
0.50000000 -0.43650109 0.37169093 0.999999 0.000978 -0.000978
0.50000000 -0.20481542 -0.01826838 0.999999 0.000978 -0.000978
0.50000000 -0.08925390 -0.29147041 0.999999 0.000978 -0.000978
0.49999997 -0.42584908 -0.40058956 0.999999 0.000978 -0.000978
0.50000000 -0.09585017 -0.29210493 0.999999 0.000978 -0.000978
0.31239501 -0.50000000 0.34569889 0.000978 -0.999999 0.000978
-0.45983383 -0.49999997 -0.33687153 0.000978 -0.999999 0.000978
-0.09644184 -0.49999997 0.16714200 0.000978 -0.999999 0.000978
0.42680886 -0.50000000 0.48133194 0.000978 -0.999999 0.000978
-0.37605932 -0.49999997 -0.32294887 0.000978 -0.999999 0.000978
0.19321725 -0.50000000 0.27789342 0.000978 -0.999999 0.000978
0.16532758 -0.50000000 0.16961020 0.000978 -0.999999 0.000978
0.05326143 -0.50000000 0.30020362 0.000978 -0.999999 0.000978
-0.48774394 -0.49999997 -0.37675872 0.000978 -0.999999 0.000978
-0.49394494 -0.50000000 0.39961454 0.000978 -0.999999 0.000978
-0.37348056 -0.50000000 0.47057727 0.000978 -0.999999 0.000978
0.00358614 -0.50000000 0.29871970 0.000978 -0.999999 0.000978
-0.15797704 -0.49999997 0.34197146 0.000978 -0.999999 0.000978
-0.25508568 -0.49999997 -0.13363481 0.000978 -0.999999 0.000978
-0.30454084 -0.49999997 0.13036758 0.000978 -0.999999 0.000978
0.18596897 -0.50000000 0.48142737 0.000978 -0.999999 0.000978
-0.29001582 -0.49999997 -0.15347280 0.000978 -0.999999 0.000978
-0.11680521 -0.49999997 -0.31567800 0.000978 -0.999999 0.000978
0.36650839 -0.49999997 -0.19683346 0.000978 -0.999999 0.000978
0.20443353 -0.49999997 -0.00537139 0.000978 -0.999999 0.000978
0.19960016 -0.49999997 -0.05832511 0.000978 -0.999999 0.000978
0.09962872 -0.49999997 -0.13643649 0.000978 -0.999999 0.000978
-0.07622638 -0.49999997 -0.49067709 0.000978 -0.999999 0.000978
0.44262877 -0.49999997 -0.43788332 0.000978 -0.999999 0.000978
0.29155695 -0.50000000 0.20375061 0.000978 -0.999999 0.000978
0.27366075 -0.49999997 -0.32219487 0.000978 -0.999999 0.000978
0.07934406 -0.49999997 -0.18932018 0.000978 -0.999999 0.000978
0.26918066 -0.49999997 -0.29633439 0.000978 -0.999999 0.000978
0.06124422 -0.49999997 -0.28818333 0.000978 -0.999999 0.000978
0.41617304 -0.49999997 -0.33313257 0.000978 -0.999999 0.000978
0.36027277 -0.50000000 0.13183236 0.000978 -0.999999 0.000978
-0.14726022 -0.49999997 -0.45616817 0.000978 -0.999999 0.000978
0.11787164 -0.50000000 0.04528248 0.000978 -0.999999 0.000978
-0.22248212 0.49999997 -0.33507583 0.000978 0.999999 -0.000978
-0.22683802 0.50000000 -0.00702123 0.000978 0.999999 -0.000978
-0.48990414 0.50000000 0.39760983 0.000978 0.999999 -0.000978
-0.43739858 0.49999997 -0.08620286 0.000978 0.999999 -0.000978
0.26177648 0.49999997 -0.44898474 0.000978 0.999999 -0.000978
-0.39678198 0.50000000 0.13335505 0.000978 0.999999 -0.000978
-0.14276859 0.50000000 -0.04363409 0.000978 0.999999 -0.000978
-0.06504542 0.50000000 -0.02537546 0.000978 0.999999 -0.000978
-0.36042845 0.50000000 0.35467488 0.000978 0.999999 -0.000978
-0.21945810 0.50000000 -0.09767881 0.000978 0.999999 -0.000978
-0.06081906 0.50000000 -0.27689353 0.000978 0.999999 -0.000978
-0.12642685 0.50000000 -0.18579298 0.000978 0.999999 -0.000978
-0.48358014 0.49999997 -0.47877812 0.000978 0.999999 -0.000978
-0.48081270 0.50000000 0.26876312 0.000978 0.999999 -0.000978
-0.48502907 0.49999997 -0.04981017 0.000978 0.999999 -0.000978
-0.34862581 0.49999997 -0.49210161 0.000978 0.999999 -0.000978
-0.09024975 0.49999997 -0.46052149 0.000978 0.999999 -0.000978
-0.31357592 0.50000000 0.39954796 0.000978 0.999999 -0.000978
0.19807422 0.50000000 0.07535884 0.000978 0.999999 -0.000978
-0.09300768 0.50000000 0.37454826 0.000978 0.999999 -0.000978
0.07416868 0.49999997 -0.07022369 0.000978 0.999999 -0.000978
0.04423761 0.50000000 0.16496566 0.000978 0.999999 -0.000978
0.39807203 0.50000000 0.05065599 0.000978 0.999999 -0.000978
-0.07267894 0.50000000 0.43585166 0.000978 0.999999 -0.000978
0.30142474 0.50000000 0.31965405 0.000978 0.999999 -0.000978
0.31709790 0.49999997 -0.08454537 0.000978 0.999999 -0.000978
0.32158875 0.50000000 0.12077019 0.000978 0.999999 -0.000978
0.11589605 0.50000000 0.31774980 0.000978 0.999999 -0.000978
0.04554559 0.50000000 0.30576369 0.000978 0.999999 -0.000978
-0.23082879 0.50000000 0.43096235 0.000978 0.999999 -0.000978
0.36470646 0.49999997 -0.32658309 0.000978 0.999999 -0.000978
0.23718832 0.50000000 0.28707680 0.000978 0.999999 -0.000978
0.31631911 0.50000000 0.02481511 0.000978 0.999999 -0.000978
0.45554271 0.49999997 -0.28158957 0.000978 0.999999 -0.000978
