//X Y Z Nx Ny Nz
201
-0.36178687 -0.11716191 0.50000000 0.000978 0.000978 0.999999
-0.22792375 0.00770149 0.50000000 0.000978 0.000978 0.999999
-0.19167909 0.03195347 0.50000000 0.000978 0.000978 0.999999
-0.30337548 0.43205082 0.50000000 0.000978 0.000978 0.999999
-0.33811915 0.44965017 0.50000000 0.000978 0.000978 0.999999
-0.31252766 0.04516959 0.50000000 0.000978 0.000978 0.999999
-0.22056788 0.20029521 0.50000000 0.000978 0.000978 0.999999
-0.18277481 0.19257385 0.50000000 0.000978 0.000978 0.999999
-0.14794838 0.26212722 0.50000000 0.000978 0.000978 0.999999
-0.16410741 0.18663028 0.50000000 0.000978 0.000978 0.999999
-0.48807991 -0.21698353 0.50000000 0.000978 0.000978 0.999999
-0.10644516 0.32924831 0.50000000 0.000978 0.000978 0.999999
0.30431259 0.41569272 0.50000000 0.000978 0.000978 0.999999
-0.32962978 0.09585604 0.50000000 0.000978 0.000978 0.999999
-0.41474286 -0.03036511 0.50000000 0.000978 0.000978 0.999999
-0.37413338 0.43604001 0.50000000 0.000978 0.000978 0.999999
-0.47656789 0.20906124 0.50000000 0.000978 0.000978 0.999999
0.05278313 -0.17106792 0.50000000 0.000978 0.000978 0.999999
0.44825143 0.35779220 0.50000000 0.000978 0.000978 0.999999
0.14538348 0.04595798 0.50000000 0.000978 0.000978 0.999999
-0.17737855 -0.38494951 0.50000000 0.000978 0.000978 0.999999
0.18629009 -0.42292064 0.50000000 0.000978 0.000978 0.999999
-0.44790909 -0.48115134 0.50000000 0.000978 0.000978 0.999999
0.34625912 -0.29541916 0.50000000 0.000978 0.000978 0.999999
0.11395255 -0.14466450 0.50000000 0.000978 0.000978 0.999999
0.45312983 0.22530442 0.50000000 0.000978 0.000978 0.999999
-0.07941338 -0.29653856 0.50000000 0.000978 0.000978 0.999999
0.14260803 -0.48799083 0.50000000 0.000978 0.000978 0.999999
-0.02443692 -0.20476773 0.50000000 0.000978 0.000978 0.999999
0.42085794 0.19263816 0.50000000 0.000978 0.000978 0.999999
0.03008753 -0.43822759 0.50000000 0.000978 0.000978 0.999999
0.40401319 0.10267395 0.50000000 0.000978 0.000978 0.999999
0.47565049 0.23246962 0.50000000 0.000978 0.000978 0.999999
-0.34182096 0.32172340 -0.50000006 0.000978 -0.000978 -0.999999
-0.39088821 0.11662447 -0.50000006 0.000978 -0.000978 -0.999999
-0.36752272 -0.29071707 -0.50000000 0.000978 -0.000978 -0.999999
0.03927445 -0.08107658 -0.50000000 0.000978 -0.000978 -0.999999
-0.49485964 -0.16200966 -0.50000000 0.000978 -0.000978 -0.999999
-0.20411146 -0.05369806 -0.50000006 0.000978 -0.000978 -0.999999
-0.00728154 -0.01393552 -0.50000000 0.000978 -0.000978 -0.999999
-0.38765290 0.04116258 -0.50000000 0.000978 -0.000978 -0.999999
-0.24660894 -0.17538637 -0.50000000 0.000978 -0.000978 -0.999999
-0.49590555 -0.09953550 -0.50000000 0.000978 -0.000978 -0.999999
0.21928060 -0.28836459 -0.50000000 0.000978 -0.000978 -0.999999
-0.48174882 -0.45097363 -0.49999997 0.000978 -0.000978 -0.999999
0.29094172 -0.48914474 -0.49999997 0.000978 -0.000978 -0.999999
0.24930859 -0.39777607 -0.50000000 0.000978 -0.000978 -0.999999
0.23189926 -0.47680873 -0.49999997 0.000978 -0.000978 -0.999999
-0.03855136 -0.36450160 -0.49999997 0.000978 -0.000978 -0.999999
-0.17344511 0.21975240 -0.50000006 0.000978 -0.000978 -0.999999
0.01393355 0.34617358 -0.50000006 0.000978 -0.000978 -0.999999
0.37057042 0.01225555 -0.50000000 0.000978 -0.000978 -0.999999
-0.07800025 0.21119812 -0.50000006 0.000978 -0.000978 -0.999999
-0.06508285 0.09023178 -0.50000000 0.000978 -0.000978 -0.999999
-0.20176214 0.38263679 -0.50000006 0.000978 -0.000978 -0.999999
0.34251601 -0.11889577 -0.50000000 0.000978 -0.000978 -0.999999
0.12312856 0.27599975 -0.50000006 0.000978 -0.000978 -0.999999
0.40668219 -0.19677305 -0.50000000 0.000978 -0.000978 -0.999999
0.45906365 0.30943596 -0.50000006 0.000978 -0.000978 -0.999999
0.49464461 -0.15713501 -0.50000000 0.000978 -0.000978 -0.999999
-0.48115587 0.48293835 -0.50000006 0.000978 -0.000978 -0.999999
0.15485391 0.02965099 -0.50000000 0.000978 -0.000978 -0.999999
0.21409991 0.19274792 -0.50000006 0.000978 -0.000978 -0.999999
0.13536116 0.11843833 -0.50000000 0.000978 -0.000978 -0.999999
0.23666549 -0.17565143 -0.50000000 0.000978 -0.000978 -0.999999
0.38845524 0.09320691 -0.50000000 0.000978 -0.000978 -0.999999
-0.49999997 -0.12815756 -0.42153943 -0.999999 0.000978 0.000978
-0.49999997 0.31578812 -0.13144222 -0.999999 0.000978 0.000978
-0.49999997 0.22093004 -0.37131244 -0.999999 0.000978 0.000978
-0.50000000 0.19804724 0.16187173 -0.999999 0.000978 0.000978
-0.49999997 -0.05510494 -0.35678345 -0.999999 0.000978 0.000978
-0.49999997 0.28609639 -0.33792081 -0.999999 0.000978 0.000978
-0.50000000 0.40938765 0.21319687 -0.999999 0.000978 0.000978
-0.50000000 0.19971484 0.04290903 -0.999999 0.000978 0.000978
-0.49999997 -0.13506629 -0.31452864 -0.999999 0.000978 0.000978
-0.49999997 0.01249526 -0.03959504 -0.999999 0.000978 0.000978
-0.50000000 0.16267455 0.06665605 -0.999999 0.000978 0.000978
-0.49999997 0.39551193 -0.28865319 -0.999999 0.000978 0.000978
-0.49999997 -0.06672111 -0.31286222 -0.999999 0.000978 0.000978
-0.49999997 0.13888761 -0.39858121 -0.999999 0.000978 0.000978
-0.49999997 0.08438760 -0.45137271 -0.999999 0.000978 0.000978
-0.49999997 0.46988606 -0.15217978 -0.999999 0.000978 0.000978
-0.50000000 0.13053238 0.04768336 -0.999999 0.000978 0.000978
-0.49999997 -0.38911033 -0.36059985 -0.999999 0.000978 0.000978
-0.50000000 0.07761332 0.33525062 -0.999999 0.000978 0.000978
-0.50000000 -0.46821839 0.29487088 -0.999999 0.000978 0.000978
-0.50000000 -0.19782716 0.34228086 -0.999999 0.000978 0.000978
-0.49999997 -0.09660769 0.39518234 -0.999999 0.000978 0.000978
-0.49999997 -0.17200226 0.23632959 -0.999999 0.000978 0.000978
-0.50000000 -0.34809488 0.49610686 -0.999999 0.000978 0.000978
-0.49999997 -0.45371062 -0.00488025 -0.999999 0.000978 0.000978
-0.50000000 -0.04963008 0.47270629 -0.999999 0.000978 0.000978
-0.50000000 -0.42963728 0.33431149 -0.999999 0.000978 0.000978
-0.50000000 0.20426401 0.46337256 -0.999999 0.000978 0.000978
-0.49999997 -0.13786146 0.07721481 -0.999999 0.000978 0.000978
-0.50000000 -0.38428682 0.39691550 -0.999999 0.000978 0.000978
-0.50000000 -0.26553208 0.36177725 -0.999999 0.000978 0.000978
-0.50000000 -0.47225052 0.12833165 -0.999999 0.000978 0.000978
-0.50000000 -0.48711988 0.02247386 -0.999999 0.000978 0.000978
0.49999997 0.23277758 -0.03562206 0.999999 0.000978 -0.000978
0.50000000 -0.15718707 0.32508141 0.999999 0.000978 -0.000978
0.50000000 0.04314530 0.45986572 0.999999 0.000978 -0.000978
0.50000000 0.03784943 0.26548594 0.999999 0.000978 -0.000978
0.50000000 0.27906638 0.21660638 0.999999 0.000978 -0.000978
0.49999997 0.43829387 -0.00003231 0.999999 0.000978 -0.000978
0.49999997 0.19115518 -0.01733971 0.999999 0.000978 -0.000978
0.49999997 0.36058456 -0.11426967 0.999999 0.000978 -0.000978
0.50000000 0.18706506 0.19642252 0.999999 0.000978 -0.000978
0.49999997 0.20504728 -0.10317612 0.999999 0.000978 -0.000978
0.49999997 0.13643301 -0.04258144 0.999999 0.000978 -0.000978
0.49999997 0.41255426 -0.28986472 0.999999 0.000978 -0.000978
0.50000000 -0.19143566 0.46327204 0.999999 0.000978 -0.000978
0.49999997 0.46240169 -0.24196082 0.999999 0.000978 -0.000978
0.49999997 0.43076101 -0.35220414 0.999999 0.000978 -0.000978
0.50000000 0.34937441 0.29323062 0.999999 0.000978 -0.000978
0.50000000 0.34101540 0.21933722 0.999999 0.000978 -0.000978
0.50000000 -0.14260912 -0.24550748 0.999999 0.000978 -0.000978
0.49999997 0.10501716 -0.29444233 0.999999 0.000978 -0.000978
0.50000000 -0.27121574 0.07357426 0.999999 0.000978 -0.000978
0.50000000 -0.00166792 -0.24765459 0.999999 0.000978 -0.000978
0.49999997 -0.41885635 -0.17955679 0.999999 0.000978 -0.000978
0.49999997 -0.34712809 -0.49407339 0.999999 0.000978 -0.000978
0.49999997 0.13764557 -0.17200780 0.999999 0.000978 -0.000978
0.49999997 -0.39683601 -0.27866864 0.999999 0.000978 -0.000978
0.50000000 -0.31680089 -0.12981862 0.999999 0.000978 -0.000978
0.49999997 0.23021087 -0.29293248 0.999999 0.000978 -0.000978
0.50000000 -0.39260232 0.14606090 0.999999 0.000978 -0.000978
0.49999997 0.44384268 -0.49934664 0.999999 0.000978 -0.000978
0.49999997 -0.16670015 -0.36340132 0.999999 0.000978 -0.000978
0.49999997 0.24570557 -0.42825729 0.999999 0.000978 -0.000978
0.49999997 -0.47957700 -0.47610196 0.999999 0.000978 -0.000978
0.50000000 -0.02055085 -0.29352677 0.999999 0.000978 -0.000978
0.50000000 -0.06932363 -0.02356020 0.999999 0.000978 -0.000978
0.15457830 -0.50000000 0.35860229 0.000978 -0.999999 0.000978
-0.42049184 -0.49999997 -0.41654718 0.000978 -0.999999 0.000978
0.07445094 -0.50000000 0.19898014 0.000978 -0.999999 0.000978
-0.32908979 -0.49999997 -0.23549171 0.000978 -0.999999 0.000978
-0.06701431 -0.49999997 0.30967468 0.000978 -0.999999 0.000978
0.27800360 -0.50000000 0.45556730 0.000978 -0.999999 0.000978
-0.36121735 -0.50000000 0.40735710 0.000978 -0.999999 0.000978
-0.47006854 -0.50000000 0.13832611 0.000978 -0.999999 0.000978
0.19540980 -0.50000000 0.20986918 0.000978 -0.999999 0.000978
-0.48001894 -0.49999997 -0.37902418 0.000978 -0.999999 0.000978
-0.48745668 -0.50000000 0.12406239 0.000978 -0.999999 0.000978
0.27887240 -0.50000000 0.49816877 0.000978 -0.999999 0.000978
0.35641357 -0.50000000 0.46299261 0.000978 -0.999999 0.000978
-0.19764045 -0.49999997 0.30105996 0.000978 -0.999999 0.000978
0.37957421 -0.50000000 0.46874532 0.000978 -0.999999 0.000978
-0.10865328 -0.49999997 0.15797192 0.000978 -0.999999 0.000978
0.42331299 -0.50000000 0.47699329 0.000978 -0.999999 0.000978
0.35106325 -0.50000000 0.13514954 0.000978 -0.999999 0.000978
-0.23486142 -0.49999997 -0.35702762 0.000978 -0.999999 0.000978
0.35530001 -0.50000000 0.03569031 0.000978 -0.999999 0.000978
0.44343862 -0.49999997 -0.10362181 0.000978 -0.999999 0.000978
-0.17466217 -0.49999997 -0.22477448 0.000978 -0.999999 0.000978
0.28072309 -0.49999997 -0.30469149 0.000978 -0.999999 0.000978
0.08602387 -0.49999997 -0.00165936 0.000978 -0.999999 0.000978
-0.21598682 -0.49999997 -0.44614854 0.000978 -0.999999 0.000978
0.04946223 -0.49999997 -0.41059336 0.000978 -0.999999 0.000978
0.00562744 -0.49999997 -0.36454168 0.000978 -0.999999 0.000978
0.28431106 -0.50000000 0.14132160 0.000978 -0.999999 0.000978
0.39946619 -0.49999997 -0.10747132 0.000978 -0.999999 0.000978
-0.10214950 -0.49999997 -0.33883417 0.000978 -0.999999 0.000978
0.31202379 -0.49999997 -0.35195833 0.000978 -0.999999 0.000978
0.43567905 -0.49999997 -0.04779637 0.000978 -0.999999 0.000978
0.40721908 -0.50000000 0.08675838 0.000978 -0.999999 0.000978
0.41123134 -0.50000000 0.26281309 0.000978 -0.999999 0.000978
-0.21566418 0.50000000 -0.15501788 0.000978 0.999999 -0.000978
0.19365719 0.49999997 -0.37676877 0.000978 0.999999 -0.000978
-0.46716604 0.50000000 0.23068134 0.000978 0.999999 -0.000978
-0.19232640 0.50000000 -0.08685142 0.000978 0.999999 -0.000978
-0.11922765 0.50000000 -0.31846720 0.000978 0.999999 -0.000978
-0.48238567 0.50000000 0.47173986 0.000978 0.999999 -0.000978
-0.34663874 0.50000000 -0.04913852 0.000978 0.999999 -0.000978
-0.47794637 0.49999997 -0.17759079 0.000978 0.999999 -0.000978
-0.03036073 0.50000000 -0.26087677 0.000978 0.999999 -0.000978
-0.31454933 0.49999997 -0.27395594 0.000978 0.999999 -0.000978
-0.12369981 0.50000000 -0.21851477 0.000978 0.999999 -0.000978
-0.14950055 0.49999997 -0.40533638 0.000978 0.999999 -0.000978
0.19751146 0.49999997 -0.22265255 0.000978 0.999999 -0.000978
-0.24099064 0.49999997 -0.33408213 0.000978 0.999999 -0.000978
0.33535573 0.49999997 -0.45711190 0.000978 0.999999 -0.000978
-0.04489502 0.50000000 -0.26484534 0.000978 0.999999 -0.000978
-0.41888934 0.50000000 0.33435106 0.000978 0.999999 -0.000978
0.23630561 0.50000000 0.27158928 0.000978 0.999999 -0.000978
0.41406500 0.50000000 0.06486887 0.000978 0.999999 -0.000978
0.10128047 0.50000000 0.30708805 0.000978 0.999999 -0.000978
0.30608171 0.50000000 0.49314991 0.000978 0.999999 -0.000978
0.49198115 0.49999997 -0.48820651 0.000978 0.999999 -0.000978
0.45733607 0.50000000 0.32308021 0.000978 0.999999 -0.000978
0.18699557 0.49999997 -0.08076203 0.000978 0.999999 -0.000978
0.21110448 0.49999997 -0.19587570 0.000978 0.999999 -0.000978
-0.28994292 0.50000000 0.43856248 0.000978 0.999999 -0.000978
0.01979667 0.50000000 0.24970937 0.000978 0.999999 -0.000978
0.46592325 0.50000000 0.20143795 0.000978 0.999999 -0.000978
0.42410779 0.50000000 0.41483483 0.000978 0.999999 -0.000978
0.46342292 0.49999997 -0.16990703 0.000978 0.999999 -0.000978
0.15558611 0.50000000 0.43952408 0.000978 0.999999 -0.000978
-0.14571749 0.50000000 0.36726189 0.000978 0.999999 -0.000978
0.45032907 0.49999997 -0.35915983 0.000978 0.999999 -0.000978
0.30845633 0.49999997 -0.05577886 0.000978 0.999999 -0.000978
