//X Y Z Nx Ny Nz
202
-0.04165706 0.30264392 0.50000000 0.000978 0.000978 0.999999
-0.11146116 0.19661921 0.50000000 0.000978 0.000978 0.999999
0.03703493 0.07811805 0.50000000 0.000978 0.000978 0.999999
-0.41609597 0.18928570 0.50000000 0.000978 0.000978 0.999999
-0.07950890 0.10964453 0.50000000 0.000978 0.000978 0.999999
-0.15115902 0.43456993 0.50000000 0.000978 0.000978 0.999999
-0.33290190 0.23819554 0.50000000 0.000978 0.000978 0.999999
-0.21837986 0.16751301 0.50000000 0.000978 0.000978 0.999999
-0.26736701 0.06188592 0.50000000 0.000978 0.000978 0.999999
-0.38261455 -0.00368464 0.50000000 0.000978 0.000978 0.999999
0.34551048 0.39602521 0.50000000 0.000978 0.000978 0.999999
-0.47766116 -0.21006897 0.50000000 0.000978 0.000978 0.999999
-0.00296694 0.27451399 0.50000000 0.000978 0.000978 0.999999
-0.26353091 0.25822908 0.50000000 0.000978 0.000978 0.999999
-0.24551374 0.44083881 0.50000000 0.000978 0.000978 0.999999
-0.33955920 -0.12576117 0.50000000 0.000978 0.000978 0.999999
-0.32173902 -0.04976270 0.50000000 0.000978 0.000978 0.999999
0.39282528 -0.18744949 0.50000000 0.000978 0.000978 0.999999
0.19004950 -0.24226710 0.50000000 0.000978 0.000978 0.999999
0.46201575 0.43848330 0.50000000 0.000978 0.000978 0.999999
0.47812867 0.44156307 0.50000000 0.000978 0.000978 0.999999
-0.32164508 -0.46086770 0.50000000 0.000978 0.000978 0.999999
0.46447909 -0.24519515 0.50000000 0.000978 0.000978 0.999999
0.05914041 -0.38895327 0.50000000 0.000978 0.000978 0.999999
0.30869299 0.11607617 0.50000000 0.000978 0.000978 0.999999
-0.08743244 -0.46827117 0.50000000 0.000978 0.000978 0.999999
-0.04638747 -0.43846014 0.50000000 0.000978 0.000978 0.999999
0.14484321 -0.49167088 0.50000000 0.000978 0.000978 0.999999
-0.15803576 -0.22768870 0.50000000 0.000978 0.000978 0.999999
-0.31421372 -0.44419834 0.50000000 0.000978 0.000978 0.999999
0.28107980 0.06968349 0.50000000 0.000978 0.000978 0.999999
0.18035756 -0.48834935 0.50000000 0.000978 0.000978 0.999999
0.13097849 -0.26381820 0.50000000 0.000978 0.000978 0.999999
-0.36569235 -0.48011950 0.50000000 0.000978 0.000978 0.999999
-0.38685521 -0.26511857 -0.50000000 0.000978 -0.000978 -0.999999
0.18921900 -0.19859903 -0.50000000 0.000978 -0.000978 -0.999999
-0.36270350 -0.41267294 -0.50000000 0.000978 -0.000978 -0.999999
0.16407442 -0.23629691 -0.50000000 0.000978 -0.000978 -0.999999
-0.34437954 0.01561725 -0.50000006 0.000978 -0.000978 -0.999999
0.06253648 -0.18849865 -0.50000000 0.000978 -0.000978 -0.999999
-0.41730759 -0.39090505 -0.50000000 0.000978 -0.000978 -0.999999
-0.48056221 -0.02856928 -0.50000000 0.000978 -0.000978 -0.999999
0.04803503 -0.42967406 -0.49999997 0.000978 -0.000978 -0.999999
-0.48011449 -0.38557419 -0.49999997 0.000978 -0.000978 -0.999999
-0.05565313 -0.39558366 -0.49999997 0.000978 -0.000978 -0.999999
-0.15039474 -0.28973311 -0.49999997 0.000978 -0.000978 -0.999999
-0.21201405 -0.38196585 -0.50000000 0.000978 -0.000978 -0.999999
-0.22373831 -0.49313885 -0.50000000 0.000978 -0.000978 -0.999999
-0.41039771 -0.20854276 -0.50000000 0.000978 -0.000978 -0.999999
-0.09490716 -0.06342451 -0.50000000 0.000978 -0.000978 -0.999999
-0.27862772 -0.34198228 -0.50000000 0.000978 -0.000978 -0.999999
-0.07424647 0.30058002 -0.50000006 0.000978 -0.000978 -0.999999
0.48549873 0.49420792 -0.50000006 0.000978 -0.000978 -0.999999
-0.32393432 0.36333823 -0.50000006 0.000978 -0.000978 -0.999999
-0.16103816 0.19721699 -0.50000006 0.000978 -0.000978 -0.999999
0.35112840 0.11752295 -0.50000000 0.000978 -0.000978 -0.999999
0.07486838 0.40691829 -0.50000006 0.000978 -0.000978 -0.999999
0.49448508 -0.40880448 -0.49999997 0.000978 -0.000978 -0.999999
-0.31255618 0.42485783 -0.50000006 0.000978 -0.000978 -0.999999
0.23401833 0.13971210 -0.50000000 0.000978 -0.000978 -0.999999
0.46421331 0.04168481 -0.50000000 0.000978 -0.000978 -0.999999
0.23225003 0.03587911 -0.50000000 0.000978 -0.000978 -0.999999
0.46709692 -0.26223814 -0.50000000 0.000978 -0.000978 -0.999999
-0.17023468 0.27840370 -0.50000006 0.000978 -0.000978 -0.999999
0.40789804 -0.40538293 -0.49999997 0.000978 -0.000978 -0.999999
0.24851209 0.46894377 -0.50000006 0.000978 -0.000978 -0.999999
-0.07601121 0.20017570 -0.50000006 0.000978 -0.000978 -0.999999
0.36404026 0.29779387 -0.50000006 0.000978 -0.000978 -0.999999
-0.50000000 0.41141427 0.01895034 -0.999999 0.000978 0.000978
-0.49999997 0.34995273 -0.36763316 -0.999999 0.000978 0.000978
-0.50000000 0.15632568 0.03947943 -0.999999 0.000978 0.000978
-0.50000000 0.46563962 0.24201035 -0.999999 0.000978 0.000978
-0.49999997 0.27251467 -0.21635792 -0.999999 0.000978 0.000978
-0.49999997 -0.03631189 -0.15791193 -0.999999 0.000978 0.000978
-0.49999997 0.08023950 -0.36528257 -0.999999 0.000978 0.000978
-0.49999997 -0.26216522 -0.33859566 -0.999999 0.000978 0.000978
-0.49999997 -0.29549560 -0.29990163 -0.999999 0.000978 0.000978
-0.49999997 -0.08942866 -0.24610290 -0.999999 0.000978 0.000978
-0.49999997 0.18491063 -0.40789276 -0.999999 0.000978 0.000978
-0.50000000 0.29582226 0.26004881 -0.999999 0.000978 0.000978
-0.49999997 -0.11292973 -0.41498283 -0.999999 0.000978 0.000978
-0.49999997 0.24771324 -0.07989994 -0.999999 0.000978 0.000978
-0.49999997 0.18596548 -0.39661226 -0.999999 0.000978 0.000978
-0.50000000 0.36975607 0.31297284 -0.999999 0.000978 0.000978
-0.49999997 -0.00045435 -0.02569509 -0.999999 0.000978 0.000978
-0.50000000 -0.17008045 0.42952523 -0.999999 0.000978 0.000978
-0.50000000 0.21153280 0.32898617 -0.999999 0.000978 0.000978
-0.50000000 0.02979830 0.09199804 -0.999999 0.000978 0.000978
-0.50000000 -0.25929654 0.47813761 -0.999999 0.000978 0.000978
-0.50000000 0.01243356 0.02265537 -0.999999 0.000978 0.000978
-0.50000000 0.12457314 0.29441491 -0.999999 0.000978 0.000978
-0.49999997 -0.32116771 -0.16364934 -0.999999 0.000978 0.000978
-0.50000000 -0.40554759 0.19598241 -0.999999 0.000978 0.000978
-0.50000000 0.32666668 0.45843488 -0.999999 0.000978 0.000978
-0.49999997 -0.31928265 -0.23590480 -0.999999 0.000978 0.000978
-0.49999997 -0.17082742 -0.06140736 -0.999999 0.000978 0.000978
-0.49999997 -0.46181113 -0.41325751 -0.999999 0.000978 0.000978
-0.49999997 -0.38644803 -0.11592991 -0.999999 0.000978 0.000978
-0.49999997 -0.35615373 -0.28159922 -0.999999 0.000978 0.000978
-0.49999997 -0.41119203 -0.09091084 -0.999999 0.000978 0.000978
-0.49999997 -0.06190315 0.06874248 -0.999999 0.000978 0.000978
-0.49999997 -0.31259716 -0.23448138 -0.999999 0.000978 0.000978
0.50000000 0.23023796 0.07177809 0.999999 0.000978 -0.000978
0.50000000 0.29223520 0.10436076 0.999999 0.000978 -0.000978
0.50000000 0.32802227 0.44753873 0.999999 0.000978 -0.000978
0.50000000 0.08305383 0.45118877 0.999999 0.000978 -0.000978
0.50000000 -0.08521742 0.45353392 0.999999 0.000978 -0.000978
0.49999997 0.31316507 -0.26966608 0.999999 0.000978 -0.000978
0.50000000 -0.06539106 0.24532157 0.999999 0.000978 -0.000978
0.50000000 -0.06039065 0.41125762 0.999999 0.000978 -0.000978
0.50000000 0.21212479 0.43443203 0.999999 0.000978 -0.000978
0.50000000 0.28979611 0.21954823 0.999999 0.000978 -0.000978
0.50000000 0.46027285 0.19401950 0.999999 0.000978 -0.000978
0.50000000 0.28227511 0.14608946 0.999999 0.000978 -0.000978
0.50000000 -0.24704051 0.49352956 0.999999 0.000978 -0.000978
0.49999997 0.39921200 -0.32662308 0.999999 0.000978 -0.000978
0.49999997 0.24864325 -0.08255827 0.999999 0.000978 -0.000978
0.50000000 0.15201214 0.07016537 0.999999 0.000978 -0.000978
0.50000000 -0.18355912 -0.18511859 0.999999 0.000978 -0.000978
0.50000000 -0.23372784 -0.20053640 0.999999 0.000978 -0.000978
0.49999997 0.09827116 -0.39030990 0.999999 0.000978 -0.000978
0.50000000 -0.28215134 -0.16996060 0.999999 0.000978 -0.000978
0.50000000 -0.27971971 -0.09724204 0.999999 0.000978 -0.000978
0.49999997 -0.11649343 -0.46663621 0.999999 0.000978 -0.000978
0.49999997 0.40203205 -0.40987113 0.999999 0.000978 -0.000978
0.49999997 0.10118082 -0.14149523 0.999999 0.000978 -0.000978
0.49999997 -0.14890054 -0.49970594 0.999999 0.000978 -0.000978
0.49999997 -0.38395560 -0.44844598 0.999999 0.000978 -0.000978
0.49999997 0.30423710 -0.38158789 0.999999 0.000978 -0.000978
0.49999997 -0.29439282 -0.40933374 0.999999 0.000978 -0.000978
0.49999997 -0.27704284 -0.49767888 0.999999 0.000978 -0.000978
0.50000000 -0.16764814 0.05010214 0.999999 0.000978 -0.000978
0.50000000 -0.40406877 -0.02381852 0.999999 0.000978 -0.000978
0.49999997 0.07381496 -0.32528383 0.999999 0.000978 -0.000978
0.49999997 -0.36702293 -0.48655882 0.999999 0.000978 -0.000978
-0.45709950 -0.49999997 -0.29978764 0.000978 -0.999999 0.000978
0.24552277 -0.50000000 0.33070618 0.000978 -0.999999 0.000978
-0.17630580 -0.49999997 -0.16079192 0.000978 -0.999999 0.000978
-0.25586489 -0.50000000 0.48875332 0.000978 -0.999999 0.000978
-0.37926275 -0.50000000 0.22000453 0.000978 -0.999999 0.000978
0.05143133 -0.50000000 0.43766254 0.000978 -0.999999 0.000978
-0.37879971 -0.49999997 -0.11326069 0.000978 -0.999999 0.000978
-0.42726728 -0.50000000 0.13045168 0.000978 -0.999999 0.000978
-0.42539230 -0.49999997 -0.39989358 0.000978 -0.999999 0.000978
-0.02164602 -0.50000000 0.49343550 0.000978 -0.999999 0.000978
-0.19815290 -0.50000000 0.42338318 0.000978 -0.999999 0.000978
-0.29335791 -0.49999997 0.17314729 0.000978 -0.999999 0.000978
-0.31186301 -0.49999997 -0.05739287 0.000978 -0.999999 0.000978
-0.12271801 -0.49999997 -0.10899025 0.000978 -0.999999 0.000978
0.15367869 -0.50000000 0.16647829 0.000978 -0.999999 0.000978
-0.37846050 -0.50000000 0.42086196 0.000978 -0.999999 0.000978
0.27425835 -0.50000000 0.27306110 0.000978 -0.999999 0.000978
0.16207038 -0.49999997 -0.34661564 0.000978 -0.999999 0.000978
0.18850049 -0.49999997 -0.23974848 0.000978 -0.999999 0.000978
0.25238770 -0.49999997 -0.06441563 0.000978 -0.999999 0.000978
0.48033732 -0.49999997 -0.05353063 0.000978 -0.999999 0.000978
0.35649726 -0.49999997 -0.14462677 0.000978 -0.999999 0.000978
0.37580359 -0.50000000 0.07258368 0.000978 -0.999999 0.000978
0.40387487 -0.49999997 -0.41884759 0.000978 -0.999999 0.000978
0.37923911 -0.49999997 -0.31285030 0.000978 -0.999999 0.000978
0.39389092 -0.49999997 -0.03390905 0.000978 -0.999999 0.000978
0.35844430 -0.49999997 -0.06252310 0.000978 -0.999999 0.000978
0.00593621 -0.49999997 -0.18968731 0.000978 -0.999999 0.000978
-0.35614344 -0.49999997 -0.45091325 0.000978 -0.999999 0.000978
0.35634232 -0.49999997 -0.34778124 0.000978 -0.999999 0.000978
-0.10183457 -0.49999997 -0.17430821 0.000978 -0.999999 0.000978
0.41769582 -0.50000000 0.29340065 0.000978 -0.999999 0.000978
0.25990155 -0.49999997 -0.36857778 0.000978 -0.999999 0.000978
-0.31617376 0.50000000 0.10652962 0.000978 0.999999 -0.000978
-0.10095572 0.49999997 -0.47927666 0.000978 0.999999 -0.000978
-0.39188164 0.49999997 -0.47735256 0.000978 0.999999 -0.000978
-0.14622757 0.50000000 0.13883962 0.000978 0.999999 -0.000978
0.08252844 0.49999997 -0.11442710 0.000978 0.999999 -0.000978
-0.20598757 0.49999997 -0.47354120 0.000978 0.999999 -0.000978
-0.29978222 0.50000000 -0.16681582 0.000978 0.999999 -0.000978
-0.23292935 0.50000000 -0.04693118 0.000978 0.999999 -0.000978
0.05950966 0.49999997 -0.14049563 0.000978 0.999999 -0.000978
0.06137899 0.49999997 -0.07967506 0.000978 0.999999 -0.000978
-0.31225502 0.50000000 0.16953704 0.000978 0.999999 -0.000978
-0.39622626 0.49999997 -0.44797504 0.000978 0.999999 -0.000978
0.11343989 0.49999997 -0.21548910 0.000978 0.999999 -0.000978
-0.41898301 0.50000000 -0.04704854 0.000978 0.999999 -0.000978
-0.06938291 0.50000000 -0.29536015 0.000978 0.999999 -0.000978
-0.31154788 0.49999997 -0.47974029 0.000978 0.999999 -0.000978
-0.38550380 0.50000000 0.27467197 0.000978 0.999999 -0.000978
0.34465206 0.49999997 -0.28450829 0.000978 0.999999 -0.000978
-0.00974256 0.50000000 0.20522153 0.000978 0.999999 -0.000978
-0.00088656 0.50000000 0.45075372 0.000978 0.999999 -0.000978
-0.10736890 0.50000000 0.42666718 0.000978 0.999999 -0.000978
0.45243809 0.50000000 0.08454189 0.000978 0.999999 -0.000978
0.05152915 0.50000000 0.32835615 0.000978 0.999999 -0.000978
0.46427238 0.49999997 -0.31865036 0.000978 0.999999 -0.000978
0.45978120 0.49999997 -0.20895314 0.000978 0.999999 -0.000978
0.14097840 0.50000000 0.26010710 0.000978 0.999999 -0.000978
0.15161553 0.50000000 0.12890038 0.000978 0.999999 -0.000978
-0.39302942 0.50000000 0.41941798 0.000978 0.999999 -0.000978
0.25650761 0.50000000 0.37903261 0.000978 0.999999 -0.000978
-0.21238995 0.50000000 0.25015509 0.000978 0.999999 -0.000978
0.22209305 0.50000000 0.32390952 0.000978 0.999999 -0.000978
0.25785002 0.50000000 0.10029128 0.000978 0.999999 -0.000978
0.30029541 0.50000000 0.03779876 0.000978 0.999999 -0.000978
-0.00185368 0.50000000 0.49801078 0.000978 0.999999 -0.000978
