//X Y Z Nx Ny Nz
198
-0.32106030 -0.13139246 0.50000000 0.000978 0.000978 0.999999
-0.34982610 -0.15883972 0.50000000 0.000978 0.000978 0.999999
-0.47069278 0.00925520 0.50000000 0.000978 0.000978 0.999999
-0.04253057 0.22981969 0.50000000 0.000978 0.000978 0.999999
-0.44356981 0.44801882 0.50000000 0.000978 0.000978 0.999999
0.36857873 0.39949048 0.50000000 0.000978 0.000978 0.999999
-0.24804518 -0.16476530 0.50000000 0.000978 0.000978 0.999999
-0.28182635 0.01564598 0.50000000 0.000978 0.000978 0.999999
-0.24595022 0.49116492 0.50000000 0.000978 0.000978 0.999999
-0.20924011 0.29550317 0.50000000 0.000978 0.000978 0.999999
-0.46029434 0.13456228 0.50000000 0.000978 0.000978 0.999999
-0.41730362 -0.08368906 0.50000000 0.000978 0.000978 0.999999
-0.03628176 0.33717594 0.50000000 0.000978 0.000978 0.999999
-0.32662874 0.10897335 0.50000000 0.000978 0.000978 0.999999
-0.43436283 -0.19002533 0.50000000 0.000978 0.000978 0.999999
-0.07100135 0.11458841 0.50000000 0.000978 0.000978 0.999999
0.07134762 -0.10790554 0.50000000 0.000978 0.000978 0.999999
0.31798485 -0.13147280 0.50000000 0.000978 0.000978 0.999999
0.28758645 -0.29433364 0.50000000 0.000978 0.000978 0.999999
0.31264162 -0.03973451 0.50000000 0.000978 0.000978 0.999999
0.39801675 0.37014097 0.50000000 0.000978 0.000978 0.999999
0.47394270 -0.12985969 0.50000000 0.000978 0.000978 0.999999
0.48304009 0.35333794 0.50000000 0.000978 0.000978 0.999999
0.38151932 0.30839449 0.50000000 0.000978 0.000978 0.999999
0.13566628 -0.02757528 0.50000000 0.000978 0.000978 0.999999
0.49249363 -0.38325322 0.50000000 0.000978 0.000978 0.999999
0.49622938 -0.23025444 0.50000000 0.000978 0.000978 0.999999
0.30582833 -0.16875774 0.50000000 0.000978 0.000978 0.999999
0.26998746 -0.06056252 0.50000000 0.000978 0.000978 0.999999
0.37492120 -0.48371428 0.50000000 0.000978 0.000978 0.999999
0.31992820 0.03405023 0.50000000 0.000978 0.000978 0.999999
0.05424112 -0.33495873 0.50000000 0.000978 0.000978 0.999999
-0.42234546 0.33213329 -0.50000006 0.000978 -0.000978 -0.999999
-0.31959933 0.00279304 -0.50000006 0.000978 -0.000978 -0.999999
-0.41451246 -0.18819499 -0.50000000 0.000978 -0.000978 -0.999999
0.14436114 -0.20145661 -0.50000000 0.000978 -0.000978 -0.999999
-0.44522706 -0.28018233 -0.50000000 0.000978 -0.000978 -0.999999
-0.36040679 0.14264086 -0.50000006 0.000978 -0.000978 -0.999999
0.01751620 -0.12437250 -0.50000000 0.000978 -0.000978 -0.999999
-0.08555600 -0.43507054 -0.49999994 0.000978 -0.000978 -0.999999
0.27799475 -0.30463672 -0.50000000 0.000978 -0.000978 -0.999999
-0.37687218 -0.48451477 -0.49999997 0.000978 -0.000978 -0.999999
0.11201119 -0.49431789 -0.49999997 0.000978 -0.000978 -0.999999
0.17507410 -0.36953300 -0.49999997 0.000978 -0.000978 -0.999999
-0.12996483 -0.39292526 -0.49999994 0.000978 -0.000978 -0.999999
0.32867116 -0.45860985 -0.50000000 0.000978 -0.000978 -0.999999
-0.49476069 -0.35379529 -0.49999997 0.000978 -0.000978 -0.999999
-0.39573106 0.09079140 -0.50000006 0.000978 -0.000978 -0.999999
-0.10159642 0.29816905 -0.50000006 0.000978 -0.000978 -0.999999
-0.06094933 0.40498304 -0.50000006 0.000978 -0.000978 -0.999999
0.46875909 -0.11463404 -0.50000000 0.000978 -0.000978 -0.999999
0.28757456 0.25683436 -0.50000006 0.000978 -0.000978 -0.999999
0.42884454 -0.04413712 -0.50000000 0.000978 -0.000978 -0.999999
0.27490121 -0.23000324 -0.50000000 0.000978 -0.000978 -0.999999
-0.14658999 0.21244699 -0.50000006 0.000978 -0.000978 -0.999999
0.38126111 0.03416842 -0.50000000 0.000978 -0.000978 -0.999999
0.49264774 -0.27051693 -0.50000000 0.000978 -0.000978 -0.999999
0.39631864 0.34652361 -0.50000006 0.000978 -0.000978 -0.999999
0.35663223 -0.20780671 -0.50000000 0.000978 -0.000978 -0.999999
0.11918157 0.19896039 -0.50000006 0.000978 -0.000978 -0.999999
0.33600110 0.49907112 -0.50000006 0.000978 -0.000978 -0.999999
0.03215569 0.42794439 -0.50000006 0.000978 -0.000978 -0.999999
-0.14852345 0.17485517 -0.50000006 0.000978 -0.000978 -0.999999
0.20752060 -0.00548446 -0.50000000 0.000978 -0.000978 -0.999999
-0.50000000 0.15789956 0.07650560 -0.999999 0.000978 0.000978
-0.49999997 -0.21745153 -0.42454159 -0.999999 0.000978 0.000978
-0.49999997 0.19698733 -0.11052653 -0.999999 0.000978 0.000978
-0.49999997 -0.13934119 -0.35758615 -0.999999 0.000978 0.000978
-0.50000000 0.48757303 0.09428930 -0.999999 0.000978 0.000978
-0.49999997 -0.19799472 -0.23857307 -0.999999 0.000978 0.000978
-0.50000000 0.45528039 0.01380157 -0.999999 0.000978 0.000978
-0.49999997 0.00531742 -0.05538920 -0.999999 0.000978 0.000978
-0.50000000 0.40664536 0.26558048 -0.999999 0.000978 0.000978
-0.49999997 0.30708775 -0.07906255 -0.999999 0.000978 0.000978
-0.49999997 0.20969445 -0.45378628 -0.999999 0.000978 0.000978
-0.49999997 0.28061607 -0.18508807 -0.999999 0.000978 0.000978
-0.49999997 0.13809210 -0.04661870 -0.999999 0.000978 0.000978
-0.50000000 0.24742955 0.08396411 -0.999999 0.000978 0.000978
-0.49999997 0.29733050 -0.20988387 -0.999999 0.000978 0.000978
-0.50000000 0.35971808 0.18588960 -0.999999 0.000978 0.000978
-0.49999997 0.18068743 -0.49857143 -0.999999 0.000978 0.000978
-0.50000000 -0.28767473 0.37522930 -0.999999 0.000978 0.000978
-0.49999997 -0.08219543 0.32092753 -0.999999 0.000978 0.000978
-0.49999997 -0.05494955 0.10591659 -0.999999 0.000978 0.000978
-0.49999997 -0.44231150 0.05305836 -0.999999 0.000978 0.000978
-0.50000000 -0.12561071 0.45401394 -0.999999 0.000978 0.000978
-0.50000000 -0.05594105 0.49313557 -0.999999 0.000978 0.000978
-0.50000000 -0.28200996 0.46411666 -0.999999 0.000978 0.000978
-0.50000000 0.29638180 0.37097335 -0.999999 0.000978 0.000978
-0.50000000 0.39289847 0.40673640 -0.999999 0.000978 0.000978
-0.50000000 0.02341351 0.47919977 -0.999999 0.000978 0.000978
-0.49999997 -0.28958404 -0.02221468 -0.999999 0.000978 0.000978
-0.50000000 -0.48242193 0.29986235 -0.999999 0.000978 0.000978
-0.50000000 -0.38669714 0.29996240 -0.999999 0.000978 0.000978
-0.49999997 -0.13993710 0.15092868 -0.999999 0.000978 0.000978
-0.49999997 -0.31098095 -0.20937176 -0.999999 0.000978 0.000978
-0.50000000 0.15789273 0.16778299 -0.999999 0.000978 0.000978
-0.50000000 0.04824087 0.14004093 -0.999999 0.000978 0.000978
0.49999997 0.40774158 -0.10295397 0.999999 0.000978 -0.000978
0.50000000 0.28445235 0.21347547 0.999999 0.000978 -0.000978
0.50000000 -0.16161542 0.41119793 0.999999 0.000978 -0.000978
0.50000000 -0.19254507 0.35466635 0.999999 0.000978 -0.000978
0.49999997 0.45321140 -0.44647962 0.999999 0.000978 -0.000978
0.50000000 0.14325073 0.11537057 0.999999 0.000978 -0.000978
0.50000000 -0.04745841 0.46722054 0.999999 0.000978 -0.000978
0.49999997 0.43974984 -0.25694084 0.999999 0.000978 -0.000978
0.50000000 0.31562588 0.14634055 0.999999 0.000978 -0.000978
0.50000000 -0.41142076 0.46204159 0.999999 0.000978 -0.000978
0.50000000 0.43213257 0.32065779 0.999999 0.000978 -0.000978
0.50000000 0.44773337 0.30735856 0.999999 0.000978 -0.000978
0.50000000 0.44885090 0.20129350 0.999999 0.000978 -0.000978
0.50000000 0.10540744 0.00062022 0.999999 0.000978 -0.000978
0.49999997 0.25758731 -0.17015469 0.999999 0.000978 -0.000978
0.50000000 0.22957259 0.20774862 0.999999 0.000978 -0.000978
0.50000000 -0.26934046 0.03072305 0.999999 0.000978 -0.000978
0.50000000 -0.36314839 0.33618540 0.999999 0.000978 -0.000978
0.50000000 -0.30149525 -0.03108457 0.999999 0.000978 -0.000978
0.49999997 -0.32998982 -0.36808330 0.999999 0.000978 -0.000978
0.49999997 0.02753404 -0.12924567 0.999999 0.000978 -0.000978
0.50000000 -0.12371385 -0.34642443 0.999999 0.000978 -0.000978
0.50000000 -0.27070010 -0.06197228 0.999999 0.000978 -0.000978
0.50000000 -0.49732292 0.35671046 0.999999 0.000978 -0.000978
0.49999997 -0.33157992 -0.17013453 0.999999 0.000978 -0.000978
0.50000000 -0.47411019 0.05893375 0.999999 0.000978 -0.000978
0.50000000 -0.03140765 -0.24938291 0.999999 0.000978 -0.000978
0.50000000 -0.44269171 0.12392456 0.999999 0.000978 -0.000978
0.50000000 -0.25411382 -0.19675054 0.999999 0.000978 -0.000978
0.50000000 -0.37351730 0.24849372 0.999999 0.000978 -0.000978
0.49999997 -0.34641445 -0.32996273 0.999999 0.000978 -0.000978
0.49999997 0.20113882 -0.35313505 0.999999 0.000978 -0.000978
0.49999997 0.07745925 -0.12449169 0.999999 0.000978 -0.000978
-0.20367146 -0.49999997 0.26474845 0.000978 -0.999999 0.000978
-0.05792102 -0.50000000 0.45447603 0.000978 -0.999999 0.000978
0.18180481 -0.50000000 0.26884884 0.000978 -0.999999 0.000978
-0.10094100 -0.49999997 0.31731752 0.000978 -0.999999 0.000978
-0.08918834 -0.49999997 0.35259411 0.000978 -0.999999 0.000978
-0.44044667 -0.49999997 -0.34693211 0.000978 -0.999999 0.000978
-0.39408004 -0.50000000 0.36876988 0.000978 -0.999999 0.000978
0.29128441 -0.50000000 0.34404624 0.000978 -0.999999 0.000978
-0.10989273 -0.49999997 0.10897188 0.000978 -0.999999 0.000978
-0.43918601 -0.49999997 -0.01191846 0.000978 -0.999999 0.000978
-0.35856867 -0.49999997 -0.10626981 0.000978 -0.999999 0.000978
-0.25914639 -0.50000000 0.40240705 0.000978 -0.999999 0.000978
-0.00964510 -0.49999997 0.24094510 0.000978 -0.999999 0.000978
-0.29475850 -0.50000000 0.24833488 0.000978 -0.999999 0.000978
-0.18992367 -0.49999997 0.02430162 0.000978 -0.999999 0.000978
-0.09346738 -0.50000000 0.48855975 0.000978 -0.999999 0.000978
-0.35696310 -0.49999997 0.08603600 0.000978 -0.999999 0.000978
0.47837076 -0.49999997 -0.45167142 0.000978 -0.999999 0.000978
-0.18112783 -0.49999997 -0.29638240 0.000978 -0.999999 0.000978
0.43231577 -0.50000000 0.36432284 0.000978 -0.999999 0.000978
-0.06065349 -0.49999997 -0.27612898 0.000978 -0.999999 0.000978
0.07933282 -0.49999997 -0.39004380 0.000978 -0.999999 0.000978
0.48681629 -0.49999997 -0.33908641 0.000978 -0.999999 0.000978
-0.44390711 -0.49999997 -0.46814039 0.000978 -0.999999 0.000978
0.32541269 -0.49999997 -0.45970103 0.000978 -0.999999 0.000978
0.22526985 -0.49999997 -0.22618422 0.000978 -0.999999 0.000978
-0.05061430 -0.49999997 -0.17395213 0.000978 -0.999999 0.000978
-0.11755678 -0.49999997 -0.20298865 0.000978 -0.999999 0.000978
0.37858504 -0.49999997 -0.17504239 0.000978 -0.999999 0.000978
0.12465991 -0.49999997 -0.29179546 0.000978 -0.999999 0.000978
0.48245034 -0.50000000 0.00231677 0.000978 -0.999999 0.000978
0.29629406 -0.49999997 -0.33344841 0.000978 -0.999999 0.000978
0.05086681 -0.49999997 -0.09687459 0.000978 -0.999999 0.000978
-0.25795388 0.49999997 -0.32641876 0.000978 0.999999 -0.000978
0.02636281 0.49999997 -0.16180672 0.000978 0.999999 -0.000978
0.04107514 0.49999997 -0.04735420 0.000978 0.999999 -0.000978
-0.24463913 0.50000000 -0.00623500 0.000978 0.999999 -0.000978
-0.30921757 0.49999997 -0.34845781 0.000978 0.999999 -0.000978
-0.47955856 0.50000000 0.18820572 0.000978 0.999999 -0.000978
-0.32324666 0.49999997 -0.23948240 0.000978 0.999999 -0.000978
0.18644568 0.49999997 -0.19832546 0.000978 0.999999 -0.000978
-0.43186298 0.50000000 0.35288176 0.000978 0.999999 -0.000978
-0.47570544 0.50000000 0.31120479 0.000978 0.999999 -0.000978
-0.26230907 0.50000000 0.23836398 0.000978 0.999999 -0.000978
-0.46340284 0.50000000 0.09282506 0.000978 0.999999 -0.000978
-0.16502741 0.49999997 -0.44038728 0.000978 0.999999 -0.000978
0.12032279 0.49999997 -0.24728185 0.000978 0.999999 -0.000978
-0.19073084 0.50000000 -0.12257156 0.000978 0.999999 -0.000978
0.02925232 0.49999997 -0.14995065 0.000978 0.999999 -0.000978
0.15531293 0.49999997 -0.35221863 0.000978 0.999999 -0.000978
0.28432271 0.50000000 0.48167247 0.000978 0.999999 -0.000978
-0.07026609 0.50000000 0.40578598 0.000978 0.999999 -0.000978
0.26406392 0.49999997 -0.21358329 0.000978 0.999999 -0.000978
0.44444758 0.49999997 -0.09525615 0.000978 0.999999 -0.000978
0.15709470 0.50000000 0.39101997 0.000978 0.999999 -0.000978
-0.40503725 0.50000000 0.46851018 0.000978 0.999999 -0.000978
-0.18755278 0.50000000 0.43891346 0.000978 0.999999 -0.000978
0.23890048 0.50000000 0.45696601 0.000978 0.999999 -0.000978
0.09214516 0.50000000 0.30599120 0.000978 0.999999 -0.000978
0.16923189 0.49999997 -0.05779624 0.000978 0.999999 -0.000978
0.43368781 0.49999997 -0.32308441 0.000978 0.999999 -0.000978
0.21657902 0.50000000 0.47762641 0.000978 0.999999 -0.000978
-0.04118159 0.50000000 0.04650277 0.000978 0.999999 -0.000978
0.45583206 0.49999997 -0.06108266 0.000978 0.999999 -0.000978
0.38398635 0.49999997 -0.17176914 0.000978 0.999999 -0.000978
0.16804248 0.50000000 0.23822004 0.000978 0.999999 -0.000978
0.21512958 0.50000000 0.21353430 0.000978 0.999999 -0.000978
