//X Y Z Nx Ny Nz
201
-0.16574940 0.14032492 0.50000000 0.000978 0.000978 0.999999
-0.45994970 0.39034894 0.50000000 0.000978 0.000978 0.999999
-0.40680647 -0.00402197 0.50000000 0.000978 0.000978 0.999999
-0.39249951 -0.22039545 0.50000000 0.000978 0.000978 0.999999
-0.03417629 0.30512902 0.50000000 0.000978 0.000978 0.999999
0.00599426 0.44640514 0.50000000 0.000978 0.000978 0.999999
0.04980099 0.24312937 0.50000000 0.000978 0.000978 0.999999
-0.49355683 0.39045462 0.50000000 0.000978 0.000978 0.999999
-0.47818279 -0.04277742 0.50000000 0.000978 0.000978 0.999999
-0.17527488 0.23459402 0.50000000 0.000978 0.000978 0.999999
0.25888091 0.49424064 0.50000000 0.000978 0.000978 0.999999
-0.36264038 -0.04653314 0.50000000 0.000978 0.000978 0.999999
-0.30723432 -0.08388847 0.50000000 0.000978 0.000978 0.999999
-0.28143853 -0.12804051 0.50000000 0.000978 0.000978 0.999999
0.04134542 0.37141129 0.50000000 0.000978 0.000978 0.999999
-0.43190420 0.20881832 0.50000000 0.000978 0.000978 0.999999
-0.20232195 -0.25506836 0.50000000 0.000978 0.000978 0.999999
0.30112243 0.23756152 0.50000000 0.000978 0.000978 0.999999
0.26268992 -0.13412875 0.50000000 0.000978 0.000978 0.999999
0.02151815 -0.37937394 0.50000000 0.000978 0.000978 0.999999
0.25097919 -0.40041202 0.50000000 0.000978 0.000978 0.999999
0.01728740 -0.23770201 0.50000000 0.000978 0.000978 0.999999
0.36149400 -0.17752969 0.50000000 0.000978 0.000978 0.999999
0.43309000 -0.12265995 0.50000000 0.000978 0.000978 0.999999
0.21078750 -0.24438810 0.50000000 0.000978 0.000978 0.999999
-0.07740885 -0.36482427 0.50000000 0.000978 0.000978 0.999999
0.24392727 -0.11617017 0.50000000 0.000978 0.000978 0.999999
0.15054196 -0.08718997 0.50000000 0.000978 0.000978 0.999999
-0.06020372 -0.39440614 0.50000000 0.000978 0.000978 0.999999
0.33650535 0.11879116 0.50000000 0.000978 0.000978 0.999999
0.09105578 -0.08407620 0.50000000 0.000978 0.000978 0.999999
0.23656128 -0.45387089 0.50000000 0.000978 0.000978 0.999999
-0.33603448 -0.43147182 -0.50000000 0.000978 -0.000978 -0.999999
-0.29783070 0.04097655 -0.50000006 0.000978 -0.000978 -0.999999
-0.19599804 -0.41418847 -0.50000000 0.000978 -0.000978 -0.999999
-0.26909590 0.09887038 -0.50000006 0.000978 -0.000978 -0.999999
-0.10406119 -0.42358994 -0.49999994 0.000978 -0.000978 -0.999999
-0.25211748 -0.13667876 -0.50000000 0.000978 -0.000978 -0.999999
-0.39445058 -0.49657920 -0.49999997 0.000978 -0.000978 -0.999999
-0.27254552 -0.37535638 -0.50000000 0.000978 -0.000978 -0.999999
-0.41003644 0.03737453 -0.50000000 0.000978 -0.000978 -0.999999
-0.21084750 -0.05302116 -0.50000006 0.000978 -0.000978 -0.999999
-0.24398053 0.24143934 -0.50000006 0.000978 -0.000978 -0.999999
-0.16878363 -0.27027407 -0.50000000 0.000978 -0.000978 -0.999999
0.38093680 -0.42082894 -0.49999997 0.000978 -0.000978 -0.999999
-0.29489923 -0.07191536 -0.50000000 0.000978 -0.000978 -0.999999
-0.16669473 -0.06057519 -0.50000006 0.000978 -0.000978 -0.999999
0.16062582 -0.18271920 -0.50000000 0.000978 -0.000978 -0.999999
-0.00950211 -0.32557973 -0.49999997 0.000978 -0.000978 -0.999999
0.02518710 0.00139469 -0.50000000 0.000978 -0.000978 -0.999999
0.28427246 0.08501869 -0.50000000 0.000978 -0.000978 -0.999999
0.38454419 0.28655303 -0.50000006 0.000978 -0.000978 -0.999999
0.11602533 0.03440726 -0.50000000 0.000978 -0.000978 -0.999999
0.32939547 0.30680615 -0.50000006 0.000978 -0.000978 -0.999999
-0.19073960 0.23947698 -0.50000006 0.000978 -0.000978 -0.999999
0.45915991 0.32347536 -0.50000006 0.000978 -0.000978 -0.999999
-0.11872524 0.14372689 -0.50000000 0.000978 -0.000978 -0.999999
0.32969433 0.34314483 -0.50000006 0.000978 -0.000978 -0.999999
0.46142137 0.25932938 -0.50000006 0.000978 -0.000978 -0.999999
0.33300620 -0.18054265 -0.50000000 0.000978 -0.000978 -0.999999
0.46044567 -0.02531242 -0.50000000 0.000978 -0.000978 -0.999999
0.44429272 0.40183228 -0.50000006 0.000978 -0.000978 -0.999999
-0.06618583 0.25893670 -0.50000006 0.000978 -0.000978 -0.999999
0.22888917 0.43065107 -0.50000006 0.000978 -0.000978 -0.999999
0.32147649 -0.15814078 -0.50000000 0.000978 -0.000978 -0.999999
0.37830323 -0.00553739 -0.50000000 0.000978 -0.000978 -0.999999
-0.50000000 0.30233514 0.04204524 -0.999999 0.000978 0.000978
-0.49999997 0.40652400 -0.33630782 -0.999999 0.000978 0.000978
-0.49999997 0.08749586 -0.35770857 -0.999999 0.000978 0.000978
-0.50000000 0.49427363 0.14900875 -0.999999 0.000978 0.000978
-0.49999997 0.04553631 -0.30430293 -0.999999 0.000978 0.000978
-0.49999997 0.36266613 -0.28624418 -0.999999 0.000978 0.000978
-0.49999997 0.16930410 -0.40721440 -0.999999 0.000978 0.000978
-0.49999997 0.05490711 -0.23073804 -0.999999 0.000978 0.000978
-0.50000000 0.32632822 0.21635485 -0.999999 0.000978 0.000978
-0.49999997 0.31529367 -0.34137660 -0.999999 0.000978 0.000978
-0.49999997 -0.23366544 -0.43272033 -0.999999 0.000978 0.000978
-0.49999997 0.40203291 -0.48830602 -0.999999 0.000978 0.000978
-0.50000000 0.04765208 0.02100492 -0.999999 0.000978 0.000978
-0.50000000 0.22669294 0.19322670 -0.999999 0.000978 0.000978
-0.49999997 -0.24905826 -0.30889851 -0.999999 0.000978 0.000978
-0.49999997 0.35434860 -0.41604105 -0.999999 0.000978 0.000978
-0.49999997 -0.43285266 -0.44019002 -0.999999 0.000978 0.000978
-0.50000000 0.13945326 0.30566895 -0.999999 0.000978 0.000978
-0.49999997 -0.26492327 -0.22665414 -0.999999 0.000978 0.000978
-0.49999997 -0.04506505 0.17896706 -0.999999 0.000978 0.000978
-0.49999997 -0.43906826 -0.02771436 -0.999999 0.000978 0.000978
-0.49999997 -0.20267436 0.00979695 -0.999999 0.000978 0.000978
-0.49999997 -0.46424901 -0.03843980 -0.999999 0.000978 0.000978
-0.50000000 -0.49121976 0.01573815 -0.999999 0.000978 0.000978
-0.50000000 -0.17908180 0.35997272 -0.999999 0.000978 0.000978
-0.49999997 -0.29884905 0.14929964 -0.999999 0.000978 0.000978
-0.50000000 -0.15662715 0.39678493 -0.999999 0.000978 0.000978
-0.49999997 -0.48431221 -0.15939949 -0.999999 0.000978 0.000978
-0.50000000 0.35933730 0.37350574 -0.999999 0.000978 0.000978
-0.49999997 -0.05608302 0.13646472 -0.999999 0.000978 0.000978
-0.49999997 -0.31969231 -0.16128112 -0.999999 0.000978 0.000978
-0.50000000 -0.37037542 0.36495215 -0.999999 0.000978 0.000978
-0.49999997 -0.09098306 0.16380090 -0.999999 0.000978 0.000978
-0.49999997 -0.17506796 0.25882727 -0.999999 0.000978 0.000978
0.50000000 0.44408745 0.15246713 0.999999 0.000978 -0.000978
0.50000000 -0.24724126 0.32699835 0.999999 0.000978 -0.000978
0.50000000 0.18355633 0.00251532 0.999999 0.000978 -0.000978
0.50000000 -0.08118473 0.14346957 0.999999 0.000978 -0.000978
0.50000000 0.14390743 0.31164330 0.999999 0.000978 -0.000978
0.49999997 0.17468843 -0.08735472 0.999999 0.000978 -0.000978
0.50000000 0.07012363 0.03982103 0.999999 0.000978 -0.000978
0.50000000 0.40735745 0.37734345 0.999999 0.000978 -0.000978
0.49999997 0.16588481 -0.01938617 0.999999 0.000978 -0.000978
0.50000000 0.21331739 0.46218181 0.999999 0.000978 -0.000978
0.49999997 0.44188312 -0.38122523 0.999999 0.000978 -0.000978
0.50000000 -0.43960872 0.45218682 0.999999 0.000978 -0.000978
0.50000000 -0.07613981 0.46637067 0.999999 0.000978 -0.000978
0.49999997 0.31322414 -0.15638244 0.999999 0.000978 -0.000978
0.50000000 0.37845573 0.09621507 0.999999 0.000978 -0.000978
0.50000000 -0.11620411 0.37522897 0.999999 0.000978 -0.000978
0.50000000 0.45302683 0.24417692 0.999999 0.000978 -0.000978
0.50000000 -0.46786189 0.14298311 0.999999 0.000978 -0.000978
0.49999997 -0.14078817 -0.46552321 0.999999 0.000978 -0.000978
0.49999997 -0.48669946 -0.35579059 0.999999 0.000978 -0.000978
0.49999997 0.04839918 -0.17845839 0.999999 0.000978 -0.000978
0.50000000 -0.02755895 -0.16555756 0.999999 0.000978 -0.000978
0.50000000 -0.49551296 0.14961921 0.999999 0.000978 -0.000978
0.50000000 -0.02562541 -0.10245487 0.999999 0.000978 -0.000978
0.50000000 -0.44848540 0.23385450 0.999999 0.000978 -0.000978
0.50000000 -0.35456085 0.02859253 0.999999 0.000978 -0.000978
0.49999997 0.09878096 -0.16423044 0.999999 0.000978 -0.000978
0.49999997 0.16048059 -0.28088239 0.999999 0.000978 -0.000978
0.50000000 -0.12893385 -0.30561426 0.999999 0.000978 -0.000978
0.50000000 -0.48821643 0.25452426 0.999999 0.000978 -0.000978
0.50000000 -0.01275709 -0.31511068 0.999999 0.000978 -0.000978
0.50000000 -0.06582102 -0.38364422 0.999999 0.000978 -0.000978
0.49999997 0.09803900 -0.15999895 0.999999 0.000978 -0.000978
0.50000000 -0.16203207 -0.32439363 0.999999 0.000978 -0.000978
-0.46502998 -0.50000000 0.41398954 0.000978 -0.999999 0.000978
-0.34260023 -0.49999997 0.15390092 0.000978 -0.999999 0.000978
0.09835383 -0.50000000 0.45405281 0.000978 -0.999999 0.000978
0.36345848 -0.50000000 0.43420732 0.000978 -0.999999 0.000978
-0.49805167 -0.49999997 -0.04418808 0.000978 -0.999999 0.000978
-0.29419529 -0.50000000 0.32706380 0.000978 -0.999999 0.000978
0.20255420 -0.50000000 0.35861701 0.000978 -0.999999 0.000978
0.03133765 -0.50000000 0.31966791 0.000978 -0.999999 0.000978
-0.49540886 -0.49999997 -0.10535687 0.000978 -0.999999 0.000978
-0.39338297 -0.50000000 0.42118523 0.000978 -0.999999 0.000978
-0.00844628 -0.49999997 0.20603706 0.000978 -0.999999 0.000978
0.08360782 -0.50000000 0.28394121 0.000978 -0.999999 0.000978
-0.49653834 -0.50000000 0.20752856 0.000978 -0.999999 0.000978
-0.17074066 -0.50000000 0.34061694 0.000978 -0.999999 0.000978
-0.10447672 -0.49999997 0.34134057 0.000978 -0.999999 0.000978
-0.04881120 -0.49999997 0.37085748 0.000978 -0.999999 0.000978
-0.04076189 -0.49999997 -0.10217589 0.000978 -0.999999 0.000978
0.36617497 -0.50000000 0.03090245 0.000978 -0.999999 0.000978
0.04225552 -0.49999997 -0.32095242 0.000978 -0.999999 0.000978
0.05629244 -0.49999997 -0.20073128 0.000978 -0.999999 0.000978
0.46982783 -0.50000000 0.39272183 0.000978 -0.999999 0.000978
0.34899700 -0.49999997 -0.47755858 0.000978 -0.999999 0.000978
-0.04083964 -0.49999997 -0.17983481 0.000978 -0.999999 0.000978
0.33504570 -0.49999997 -0.07329062 0.000978 -0.999999 0.000978
0.32199812 -0.50000000 0.13935685 0.000978 -0.999999 0.000978
-0.16317852 -0.49999997 -0.38729626 0.000978 -0.999999 0.000978
0.30234289 -0.50000000 0.00851244 0.000978 -0.999999 0.000978
0.48660183 -0.50000000 0.14733946 0.000978 -0.999999 0.000978
0.43073499 -0.50000000 0.30783516 0.000978 -0.999999 0.000978
0.13104713 -0.49999997 -0.40236768 0.000978 -0.999999 0.000978
0.10818714 -0.49999997 -0.26704514 0.000978 -0.999999 0.000978
0.42404264 -0.49999997 -0.09671670 0.000978 -0.999999 0.000978
0.47492540 -0.50000000 0.38990015 0.000978 -0.999999 0.000978
-0.00254741 0.50000000 -0.32946721 0.000978 0.999999 -0.000978
-0.20861730 0.50000000 -0.04885957 0.000978 0.999999 -0.000978
0.17410859 0.49999997 -0.28160825 0.000978 0.999999 -0.000978
0.04968783 0.49999997 -0.41506368 0.000978 0.999999 -0.000978
-0.24055058 0.50000000 -0.12075579 0.000978 0.999999 -0.000978
-0.49244601 0.49999997 -0.34790924 0.000978 0.999999 -0.000978
-0.03485903 0.50000000 -0.40618628 0.000978 0.999999 -0.000978
-0.11179027 0.50000000 -0.25914863 0.000978 0.999999 -0.000978
-0.30659822 0.49999997 -0.28725505 0.000978 0.999999 -0.000978
-0.35587972 0.49999997 -0.16803020 0.000978 0.999999 -0.000978
-0.29136348 0.50000000 0.10514078 0.000978 0.999999 -0.000978
-0.11914063 0.50000000 -0.28366792 0.000978 0.999999 -0.000978
-0.45468038 0.49999997 -0.41098836 0.000978 0.999999 -0.000978
0.02924439 0.49999997 -0.44613782 0.000978 0.999999 -0.000978
0.18123654 0.49999997 -0.49505472 0.000978 0.999999 -0.000978
-0.48299667 0.49999997 -0.40337169 0.000978 0.999999 -0.000978
-0.46523249 0.50000000 0.26949751 0.000978 0.999999 -0.000978
0.30335289 0.49999997 -0.06689709 0.000978 0.999999 -0.000978
0.00138430 0.50000000 0.34722939 0.000978 0.999999 -0.000978
0.43301153 0.50000000 0.35878816 0.000978 0.999999 -0.000978
-0.31849062 0.50000000 0.45578551 0.000978 0.999999 -0.000978
0.04898062 0.50000000 0.30026674 0.000978 0.999999 -0.000978
-0.33143318 0.50000000 0.42275769 0.000978 0.999999 -0.000978
-0.05206263 0.50000000 0.20771143 0.000978 0.999999 -0.000978
0.42444751 0.49999997 -0.40220463 0.000978 0.999999 -0.000978
0.19543971 0.50000000 0.46653301 0.000978 0.999999 -0.000978
-0.07206959 0.50000000 0.22336742 0.000978 0.999999 -0.000978
-0.00045359 0.50000000 0.12854713 0.000978 0.999999 -0.000978
0.22889949 0.50000000 0.32371360 0.000978 0.999999 -0.000978
0.40217975 0.49999997 -0.12723821 0.000978 0.999999 -0.000978
0.29840940 0.50000000 0.17023835 0.000978 0.999999 -0.000978
0.46031174 0.50000000 0.08651349 0.000978 0.999999 -0.000978
0.31222159 0.50000000 0.31107542 0.000978 0.999999 -0.000978
0.30991301 0.50000000 0.13761738 0.000978 0.999999 -0.000978
