//X Y Z Nx Ny Nz
203
-0.11928070 -0.10144745 0.50000000 0.000978 0.000978 0.999999
-0.46182662 0.38041669 0.50000000 0.000978 0.000978 0.999999
-0.45229715 -0.27415663 0.50000000 0.000978 0.000978 0.999999
-0.28705189 0.33171543 0.50000000 0.000978 0.000978 0.999999
-0.38907254 0.48512840 0.50000000 0.000978 0.000978 0.999999
-0.38976368 0.30858698 0.50000000 0.000978 0.000978 0.999999
-0.49856043 -0.39558029 0.50000000 0.000978 0.000978 0.999999
-0.45906153 -0.08887327 0.50000000 0.000978 0.000978 0.999999
0.04745513 0.39641124 0.50000000 0.000978 0.000978 0.999999
-0.00171831 0.10927463 0.50000000 0.000978 0.000978 0.999999
-0.31550294 -0.00989217 0.50000000 0.000978 0.000978 0.999999
0.16499156 0.44286796 0.50000000 0.000978 0.000978 0.999999
-0.22516063 0.14551216 0.50000000 0.000978 0.000978 0.999999
-0.42524517 -0.36921531 0.50000000 0.000978 0.000978 0.999999
-0.39059043 0.01798663 0.50000000 0.000978 0.000978 0.999999
-0.40420246 0.40541470 0.50000000 0.000978 0.000978 0.999999
-0.38308156 -0.17566654 0.50000000 0.000978 0.000978 0.999999
0.47639951 0.43038660 0.50000000 0.000978 0.000978 0.999999
0.19621235 -0.02386132 0.50000000 0.000978 0.000978 0.999999
0.12328386 -0.32574058 0.50000000 0.000978 0.000978 0.999999
0.33142728 -0.39440662 0.50000000 0.000978 0.000978 0.999999
0.43394643 0.24030328 0.50000000 0.000978 0.000978 0.999999
0.19920737 -0.17724815 0.50000000 0.000978 0.000978 0.999999
0.25344014 -0.10092700 0.50000000 0.000978 0.000978 0.999999
-0.35076693 -0.45330092 0.50000000 0.000978 0.000978 0.999999
0.28810722 0.26237166 0.50000000 0.000978 0.000978 0.999999
0.43773016 -0.40684560 0.50000000 0.000978 0.000978 0.999999
-0.18821633 -0.22592258 0.50000000 0.000978 0.000978 0.999999
0.01325984 -0.39736599 0.50000000 0.000978 0.000978 0.999999
0.48757675 0.35140347 0.50000000 0.000978 0.000978 0.999999
0.22861189 0.10551387 0.50000000 0.000978 0.000978 0.999999
0.18185809 -0.24607971 0.50000000 0.000978 0.000978 0.999999
0.28945965 0.17546397 0.50000000 0.000978 0.000978 0.999999
0.26874352 -0.09824705 0.50000000 0.000978 0.000978 0.999999
-0.17047474 -0.03504542 -0.50000006 0.000978 -0.000978 -0.999999
0.25686502 -0.31838173 -0.50000000 0.000978 -0.000978 -0.999999
-0.38808045 -0.31460473 -0.50000000 0.000978 -0.000978 -0.999999
-0.24067560 -0.41459230 -0.50000000 0.000978 -0.000978 -0.999999
-0.42747527 -0.23302984 -0.50000000 0.000978 -0.000978 -0.999999
0.06703305 -0.30546850 -0.49999997 0.000978 -0.000978 -0.999999
-0.20729282 -0.09067297 -0.50000006 0.000978 -0.000978 -0.999999
-0.33905208 0.15405151 -0.50000006 0.000978 -0.000978 -0.999999
-0.00856197 -0.08528085 -0.50000000 0.000978 -0.000978 -0.999999
-0.40220761 0.07303494 -0.50000006 0.000978 -0.000978 -0.999999
-0.16397849 -0.24553561 -0.49999997 0.000978 -0.000978 -0.999999
-0.26979458 -0.39742458 -0.50000000 0.000978 -0.000978 -0.999999
-0.13799152 -0.17912471 -0.49999997 0.000978 -0.000978 -0.999999
-0.41228685 0.39984766 -0.50000006 0.000978 -0.000978 -0.999999
0.19110328 -0.49555561 -0.49999997 0.000978 -0.000978 -0.999999
-0.06894493 -0.29103515 -0.49999997 0.000978 -0.000978 -0.999999
-0.29646963 0.22638313 -0.50000006 0.000978 -0.000978 -0.999999
0.33564040 -0.01684886 -0.50000000 0.000978 -0.000978 -0.999999
-0.02403702 0.29260886 -0.50000006 0.000978 -0.000978 -0.999999
-0.32360348 0.34629032 -0.50000006 0.000978 -0.000978 -0.999999
0.04656371 0.12144253 -0.50000000 0.000978 -0.000978 -0.999999
0.30035627 -0.17734820 -0.50000000 0.000978 -0.000978 -0.999999
0.06557029 0.03382814 -0.50000000 0.000978 -0.000978 -0.999999
-0.21096012 0.27625564 -0.50000006 0.000978 -0.000978 -0.999999
0.49688369 0.15198648 -0.50000000 0.000978 -0.000978 -0.999999
-0.10847600 0.29458904 -0.50000006 0.000978 -0.000978 -0.999999
-0.28470346 0.44737989 -0.50000006 0.000978 -0.000978 -0.999999
-0.01520494 0.21486589 -0.50000006 0.000978 -0.000978 -0.999999
0.41027293 -0.00621182 -0.50000000 0.000978 -0.000978 -0.999999
0.45887524 -0.09305614 -0.50000000 0.000978 -0.000978 -0.999999
0.41544417 0.14735463 -0.50000000 0.000978 -0.000978 -0.999999
0.45307371 -0.23080307 -0.50000000 0.000978 -0.000978 -0.999999
0.30143449 -0.11660939 -0.50000000 0.000978 -0.000978 -0.999999
0.03359702 0.17536548 -0.50000006 0.000978 -0.000978 -0.999999
-0.49999997 0.10093349 -0.24288648 -0.999999 0.000978 0.000978
-0.49999997 0.13036835 -0.23133454 -0.999999 0.000978 0.000978
-0.49999997 0.10809012 -0.10956988 -0.999999 0.000978 0.000978
-0.49999997 -0.25960153 -0.38627067 -0.999999 0.000978 0.000978
-0.50000000 0.37124443 0.10748553 -0.999999 0.000978 0.000978
-0.49999997 0.48456016 -0.13495579 -0.999999 0.000978 0.000978
-0.49999997 0.11674702 -0.38289842 -0.999999 0.000978 0.000978
-0.49999997 -0.02225262 -0.13682812 -0.999999 0.000978 0.000978
-0.49999997 0.30446249 -0.38899368 -0.999999 0.000978 0.000978
-0.49999997 -0.33394518 -0.46601912 -0.999999 0.000978 0.000978
-0.49999997 0.10767539 -0.06412587 -0.999999 0.000978 0.000978
-0.49999997 0.49578518 -0.47011364 -0.999999 0.000978 0.000978
-0.50000000 0.10023843 0.02494371 -0.999999 0.000978 0.000978
-0.49999997 0.12178680 -0.12637272 -0.999999 0.000978 0.000978
-0.49999997 0.23011437 -0.33828819 -0.999999 0.000978 0.000978
-0.49999997 -0.12550640 -0.39534992 -0.999999 0.000978 0.000978
-0.49999997 0.43068418 -0.01009840 -0.999999 0.000978 0.000978
-0.49999997 -0.20707816 0.07475829 -0.999999 0.000978 0.000978
-0.49999997 -0.42399549 -0.38341919 -0.999999 0.000978 0.000978
-0.50000000 0.08537057 0.30976617 -0.999999 0.000978 0.000978
-0.49999997 -0.21491933 0.15751868 -0.999999 0.000978 0.000978
-0.49999997 -0.19933614 0.24335298 -0.999999 0.000978 0.000978
-0.50000000 -0.41759795 0.29520208 -0.999999 0.000978 0.000978
-0.50000000 -0.32792646 0.44269902 -0.999999 0.000978 0.000978
-0.49999997 -0.43150046 -0.04961929 -0.999999 0.000978 0.000978
-0.50000000 -0.29328716 0.39717439 -0.999999 0.000978 0.000978
-0.49999997 -0.44656974 -0.11755593 -0.999999 0.000978 0.000978
-0.50000000 -0.05693218 0.46114728 -0.999999 0.000978 0.000978
-0.49999997 -0.30568931 0.02805094 -0.999999 0.000978 0.000978
-0.49999997 -0.25415665 -0.15610334 -0.999999 0.000978 0.000978
-0.49999997 -0.22970083 0.05272073 -0.999999 0.000978 0.000978
-0.50000000 -0.40141809 0.35878357 -0.999999 0.000978 0.000978
-0.49999997 -0.16387552 0.19788685 -0.999999 0.000978 0.000978
-0.50000000 0.38769510 0.44907534 -0.999999 0.000978 0.000978
0.50000000 0.36060420 0.07927075 0.999999 0.000978 -0.000978
0.50000000 -0.04219846 0.14886078 0.999999 0.000978 -0.000978
0.49999997 0.26268536 -0.00568509 0.999999 0.000978 -0.000978
0.49999997 0.42205590 -0.23641121 0.999999 0.000978 -0.000978
0.49999997 0.22529460 -0.22324371 0.999999 0.000978 -0.000978
0.50000000 0.45289564 0.47594053 0.999999 0.000978 -0.000978
0.50000000 0.41471872 0.05271471 0.999999 0.000978 -0.000978
0.50000000 0.40004021 0.03426662 0.999999 0.000978 -0.000978
0.50000000 0.11854649 0.40066910 0.999999 0.000978 -0.000978
0.50000000 0.22107792 0.43250507 0.999999 0.000978 -0.000978
0.49999997 0.41697010 -0.00959641 0.999999 0.000978 -0.000978
0.50000000 -0.31429732 0.42059529 0.999999 0.000978 -0.000978
0.50000000 -0.18125132 0.42499852 0.999999 0.000978 -0.000978
0.50000000 -0.00541502 0.33470619 0.999999 0.000978 -0.000978
0.50000000 0.00063689 0.01052755 0.999999 0.000978 -0.000978
0.50000000 0.49236065 0.20731056 0.999999 0.000978 -0.000978
0.49999997 0.11711700 -0.11419016 0.999999 0.000978 -0.000978
0.50000000 -0.14567685 -0.24567688 0.999999 0.000978 -0.000978
0.50000000 -0.24768457 0.08297303 0.999999 0.000978 -0.000978
0.49999997 0.21862695 -0.31427073 0.999999 0.000978 -0.000978
0.49999997 -0.05686715 -0.48964778 0.999999 0.000978 -0.000978
0.50000000 -0.48658144 0.40021077 0.999999 0.000978 -0.000978
0.50000000 -0.40716910 -0.02875178 0.999999 0.000978 -0.000978
0.49999997 -0.40013224 -0.11839131 0.999999 0.000978 -0.000978
0.49999997 0.26631621 -0.41389120 0.999999 0.000978 -0.000978
0.50000000 -0.23411798 -0.17807892 0.999999 0.000978 -0.000978
0.49999997 -0.29404119 -0.43010271 0.999999 0.000978 -0.000978
0.50000000 -0.34452936 -0.10089223 0.999999 0.000978 -0.000978
0.50000000 -0.20866296 -0.28716612 0.999999 0.000978 -0.000978
0.50000000 -0.31232303 0.22562301 0.999999 0.000978 -0.000978
0.50000000 -0.01477739 -0.19739223 0.999999 0.000978 -0.000978
0.49999997 0.26263198 -0.42231047 0.999999 0.000978 -0.000978
0.49999997 0.36827388 -0.45827150 0.999999 0.000978 -0.000978
0.50000000 -0.11691764 0.09930268 0.999999 0.000978 -0.000978
-0.41610265 -0.49999997 0.00047898 0.000978 -0.999999 0.000978
-0.11121079 -0.49999997 0.18700179 0.000978 -0.999999 0.000978
-0.22935554 -0.49999997 0.06441829 0.000978 -0.999999 0.000978
-0.40791276 -0.49999997 -0.24993786 0.000978 -0.999999 0.000978
-0.38647762 -0.50000000 0.47121716 0.000978 -0.999999 0.000978
-0.40951782 -0.50000000 0.31661108 0.000978 -0.999999 0.000978
-0.16897681 -0.49999997 0.10455793 0.000978 -0.999999 0.000978
-0.48218301 -0.50000000 0.44968015 0.000978 -0.999999 0.000978
-0.29590005 -0.49999997 0.08939338 0.000978 -0.999999 0.000978
-0.27836514 -0.50000000 0.41967773 0.000978 -0.999999 0.000978
-0.18992352 -0.49999997 -0.14636345 0.000978 -0.999999 0.000978
0.08918402 -0.50000000 0.39463368 0.000978 -0.999999 0.000978
-0.08444306 -0.49999997 -0.02433310 0.000978 -0.999999 0.000978
-0.24461576 -0.49999997 -0.13789085 0.000978 -0.999999 0.000978
-0.46079460 -0.50000000 0.13075936 0.000978 -0.999999 0.000978
0.15909514 -0.50000000 0.17952603 0.000978 -0.999999 0.000978
-0.08801347 -0.49999997 0.01021387 0.000978 -0.999999 0.000978
0.29568994 -0.49999997 -0.35033888 0.000978 -0.999999 0.000978
0.06613874 -0.50000000 0.02319002 0.000978 -0.999999 0.000978
0.11168373 -0.50000000 0.06673419 0.000978 -0.999999 0.000978
0.29306120 -0.49999997 -0.46074450 0.000978 -0.999999 0.000978
0.06964207 -0.49999997 -0.26314640 0.000978 -0.999999 0.000978
-0.31842878 -0.49999997 -0.44818172 0.000978 -0.999999 0.000978
0.17028537 -0.49999997 -0.02592900 0.000978 -0.999999 0.000978
0.10008064 -0.50000000 0.08366776 0.000978 -0.999999 0.000978
0.23029771 -0.49999997 -0.48614389 0.000978 -0.999999 0.000978
0.41326928 -0.50000000 0.07322633 0.000978 -0.999999 0.000978
0.36833483 -0.50000000 0.27751982 0.000978 -0.999999 0.000978
0.34905276 -0.50000000 0.19281471 0.000978 -0.999999 0.000978
0.29870319 -0.50000000 0.19517350 0.000978 -0.999999 0.000978
0.49253601 -0.50000000 0.37278926 0.000978 -0.999999 0.000978
0.34638521 -0.49999997 -0.37402183 0.000978 -0.999999 0.000978
0.41574901 -0.50000000 0.28004992 0.000978 -0.999999 0.000978
0.09968403 0.49999997 -0.28748849 0.000978 0.999999 -0.000978
0.38821766 0.49999997 -0.45549059 0.000978 0.999999 -0.000978
0.29728416 0.49999997 -0.49663872 0.000978 0.999999 -0.000978
-0.40311772 0.50000000 0.07792026 0.000978 0.999999 -0.000978
-0.33760911 0.50000000 0.28312713 0.000978 0.999999 -0.000978
0.01531133 0.49999997 -0.08107263 0.000978 0.999999 -0.000978
-0.04900265 0.50000000 -0.23151872 0.000978 0.999999 -0.000978
-0.35588157 0.49999997 -0.14809898 0.000978 0.999999 -0.000978
0.12149462 0.49999997 -0.27048749 0.000978 0.999999 -0.000978
-0.33688724 0.49999997 -0.23787910 0.000978 0.999999 -0.000978
-0.42899424 0.49999997 -0.46781299 0.000978 0.999999 -0.000978
0.38866106 0.49999997 -0.45067611 0.000978 0.999999 -0.000978
0.16014966 0.49999997 -0.45529956 0.000978 0.999999 -0.000978
-0.10469514 0.50000000 -0.31396168 0.000978 0.999999 -0.000978
-0.18541646 0.49999997 -0.32887155 0.000978 0.999999 -0.000978
-0.37405717 0.50000000 0.34577188 0.000978 0.999999 -0.000978
-0.30190665 0.50000000 0.10606408 0.000978 0.999999 -0.000978
0.36760318 0.50000000 0.01021990 0.000978 0.999999 -0.000978
0.23644149 0.50000000 0.16633677 0.000978 0.999999 -0.000978
0.34834403 0.50000000 0.27444011 0.000978 0.999999 -0.000978
0.15142518 0.50000000 0.03901657 0.000978 0.999999 -0.000978
-0.28215730 0.50000000 0.36768055 0.000978 0.999999 -0.000978
0.41768438 0.50000000 0.25287771 0.000978 0.999999 -0.000978
0.26518801 0.50000000 0.13913637 0.000978 0.999999 -0.000978
0.05743179 0.50000000 0.08358860 0.000978 0.999999 -0.000978
-0.07651699 0.50000000 0.22903165 0.000978 0.999999 -0.000978
-0.09233645 0.50000000 0.23130205 0.000978 0.999999 -0.000978
0.08854768 0.49999997 -0.00477868 0.000978 0.999999 -0.000978
0.17761755 0.50000000 0.15955132 0.000978 0.999999 -0.000978
0.14974248 0.50000000 0.19724736 0.000978 0.999999 -0.000978
0.21778205 0.50000000 0.00940865 0.000978 0.999999 -0.000978
0.43973470 0.50000000 0.36865929 0.000978 0.999999 -0.000978
0.16624403 0.50000000 0.31236666 0.000978 0.999999 -0.000978
0.27254364 0.49999997 -0.05774552 0.000978 0.999999 -0.000978
