//X Y Z Nx Ny Nz
202
-0.36459681 0.09484544 0.50000000 0.000978 0.000978 0.999999
-0.41109297 0.42579386 0.50000000 0.000978 0.000978 0.999999
-0.31753725 0.39328927 0.50000000 0.000978 0.000978 0.999999
-0.23777574 0.20664805 0.50000000 0.000978 0.000978 0.999999
-0.40157616 -0.32800531 0.50000000 0.000978 0.000978 0.999999
-0.06534594 0.14159887 0.50000000 0.000978 0.000978 0.999999
-0.17061990 0.06675781 0.50000000 0.000978 0.000978 0.999999
-0.27596197 -0.17182983 0.50000000 0.000978 0.000978 0.999999
-0.49792695 0.15186393 0.50000000 0.000978 0.000978 0.999999
-0.34919679 -0.10642369 0.50000000 0.000978 0.000978 0.999999
0.15537566 0.16720916 0.50000000 0.000978 0.000978 0.999999
0.37601501 0.42759115 0.50000000 0.000978 0.000978 0.999999
-0.37990558 0.01716334 0.50000000 0.000978 0.000978 0.999999
-0.13771006 0.16355044 0.50000000 0.000978 0.000978 0.999999
-0.43876308 -0.35927746 0.50000000 0.000978 0.000978 0.999999
-0.28636628 0.39568830 0.50000000 0.000978 0.000978 0.999999
-0.40755099 -0.18777528 0.50000000 0.000978 0.000978 0.999999
0.23943384 -0.37231576 0.50000000 0.000978 0.000978 0.999999
0.49961236 -0.36360732 0.50000000 0.000978 0.000978 0.999999
0.03538441 -0.46326143 0.50000000 0.000978 0.000978 0.999999
0.38535428 0.22064203 0.50000000 0.000978 0.000978 0.999999
0.15090024 0.02604741 0.50000000 0.000978 0.000978 0.999999
0.28718913 -0.12391463 0.50000000 0.000978 0.000978 0.999999
0.37236658 0.19027829 0.50000000 0.000978 0.000978 0.999999
0.26069319 -0.41692185 0.50000000 0.000978 0.000978 0.999999
0.33304372 -0.24669448 0.50000000 0.000978 0.000978 0.999999
-0.13395581 -0.19102627 0.50000000 0.000978 0.000978 0.999999
0.31257850 -0.41244304 0.50000000 0.000978 0.000978 0.999999
0.36160526 0.15290600 0.50000000 0.000978 0.000978 0.999999
0.31387690 -0.01380879 0.50000000 0.000978 0.000978 0.999999
0.11153147 -0.01894763 0.50000000 0.000978 0.000978 0.999999
0.05232409 0.03838122 0.50000000 0.000978 0.000978 0.999999
0.18859643 -0.24372137 0.50000000 0.000978 0.000978 0.999999
0.08413878 -0.02632549 0.50000000 0.000978 0.000978 0.999999
0.35592645 -0.35875067 -0.49999997 0.000978 -0.000978 -0.999999
-0.49036631 -0.32917234 -0.50000000 0.000978 -0.000978 -0.999999
-0.31289572 -0.24287981 -0.50000000 0.000978 -0.000978 -0.999999
-0.48403984 -0.02347946 -0.50000000 0.000978 -0.000978 -0.999999
-0.12240699 -0.22861224 -0.49999997 0.000978 -0.000978 -0.999999
-0.23902071 0.02861647 -0.50000006 0.000978 -0.000978 -0.999999
-0.29069999 -0.46593848 -0.50000000 0.000978 -0.000978 -0.999999
-0.25160635 -0.23792934 -0.50000000 0.000978 -0.000978 -0.999999
0.09773606 -0.19545603 -0.50000000 0.000978 -0.000978 -0.999999
-0.21935034 -0.20032793 -0.50000000 0.000978 -0.000978 -0.999999
-0.32920265 0.32105976 -0.50000006 0.000978 -0.000978 -0.999999
-0.16036201 -0.04540668 -0.49999997 0.000978 -0.000978 -0.999999
-0.37956417 -0.06578931 -0.50000000 0.000978 -0.000978 -0.999999
-0.35714403 -0.04838881 -0.50000000 0.000978 -0.000978 -0.999999
0.14471638 -0.43305627 -0.49999997 0.000978 -0.000978 -0.999999
-0.33214128 -0.13286817 -0.50000000 0.000978 -0.000978 -0.999999
-0.36631614 0.09070626 -0.50000006 0.000978 -0.000978 -0.999999
0.23483716 0.41678941 -0.50000006 0.000978 -0.000978 -0.999999
-0.22171016 0.37274480 -0.50000006 0.000978 -0.000978 -0.999999
0.42531571 0.43876663 -0.50000006 0.000978 -0.000978 -0.999999
0.10191844 0.36683136 -0.50000006 0.000978 -0.000978 -0.999999
0.42557070 -0.14081693 -0.50000000 0.000978 -0.000978 -0.999999
0.26630014 0.09146696 -0.50000000 0.000978 -0.000978 -0.999999
0.45479202 -0.26386207 -0.50000000 0.000978 -0.000978 -0.999999
0.19421479 0.25500512 -0.50000006 0.000978 -0.000978 -0.999999
0.24372855 0.02064091 -0.50000000 0.000978 -0.000978 -0.999999
-0.10475004 0.12449542 -0.50000000 0.000978 -0.000978 -0.999999
0.29729903 0.19141036 -0.50000006 0.000978 -0.000978 -0.999999
0.48510444 -0.30784845 -0.50000000 0.000978 -0.000978 -0.999999
-0.22470529 0.35197562 -0.50000006 0.000978 -0.000978 -0.999999
-0.33289024 0.41395602 -0.50000006 0.000978 -0.000978 -0.999999
0.44256991 0.25318128 -0.50000006 0.000978 -0.000978 -0.999999
-0.37028521 0.38110182 -0.50000006 0.000978 -0.000978 -0.999999
0.38654438 0.11565551 -0.50000000 0.000978 -0.000978 -0.999999
-0.49999997 -0.25874728 -0.47778872 -0.999999 0.000978 0.000978
-0.50000000 0.27545747 0.19120687 -0.999999 0.000978 0.000978
-0.49999997 0.04458144 -0.43256021 -0.999999 0.000978 0.000978
-0.49999997 0.23683301 -0.06881568 -0.999999 0.000978 0.000978
-0.49999997 0.47891760 -0.38089621 -0.999999 0.000978 0.000978
-0.49999997 0.30222732 -0.04433766 -0.999999 0.000978 0.000978
-0.49999997 0.06408832 -0.05304307 -0.999999 0.000978 0.000978
-0.49999997 0.27760369 -0.12262884 -0.999999 0.000978 0.000978
-0.49999997 0.08386707 -0.12828904 -0.999999 0.000978 0.000978
-0.50000000 0.08263890 0.05303580 -0.999999 0.000978 0.000978
-0.49999997 0.08946040 -0.41157222 -0.999999 0.000978 0.000978
-0.49999997 0.37314484 -0.01030293 -0.999999 0.000978 0.000978
-0.49999997 0.36272919 -0.34267879 -0.999999 0.000978 0.000978
-0.50000000 0.16046111 0.04016978 -0.999999 0.000978 0.000978
-0.49999997 0.02574338 -0.17025480 -0.999999 0.000978 0.000978
-0.49999997 -0.00126904 -0.32123584 -0.999999 0.000978 0.000978
-0.49999997 0.38536313 -0.32545382 -0.999999 0.000978 0.000978
-0.50000000 0.03538015 0.49330649 -0.999999 0.000978 0.000978
-0.49999997 -0.21501541 -0.09286553 -0.999999 0.000978 0.000978
-0.50000000 0.13855913 0.29817426 -0.999999 0.000978 0.000978
-0.49999997 -0.37312517 0.12471549 -0.999999 0.000978 0.000978
-0.49999997 -0.29424459 0.08535044 -0.999999 0.000978 0.000978
-0.49999997 -0.28732967 -0.07575673 -0.999999 0.000978 0.000978
-0.50000000 -0.40636951 0.38214195 -0.999999 0.000978 0.000978
-0.49999997 -0.43278614 -0.29427952 -0.999999 0.000978 0.000978
-0.50000000 0.32626757 0.44654655 -0.999999 0.000978 0.000978
-0.49999997 -0.44322833 -0.33800381 -0.999999 0.000978 0.000978
-0.50000000 -0.49341530 0.02854697 -0.999999 0.000978 0.000978
-0.49999997 -0.32582539 0.08368535 -0.999999 0.000978 0.000978
-0.49999997 -0.14863586 -0.10143408 -0.999999 0.000978 0.000978
-0.49999997 -0.00216478 0.29485649 -0.999999 0.000978 0.000978
-0.49999997 -0.36171901 -0.03476822 -0.999999 0.000978 0.000978
-0.49999997 -0.10047182 0.14735791 -0.999999 0.000978 0.000978
-0.50000000 0.05425385 0.36987147 -0.999999 0.000978 0.000978
0.50000000 0.48325032 0.35748708 0.999999 0.000978 -0.000978
0.50000000 0.02413200 0.19412842 0.999999 0.000978 -0.000978
0.50000000 0.19051895 0.13871312 0.999999 0.000978 -0.000978
0.50000000 0.38540882 0.48990813 0.999999 0.000978 -0.000978
0.50000000 -0.19712949 0.28689277 0.999999 0.000978 -0.000978
0.50000000 -0.20236245 0.39670354 0.999999 0.000978 -0.000978
0.50000000 0.10244638 0.37490243 0.999999 0.000978 -0.000978
0.50000000 0.29326606 0.42789540 0.999999 0.000978 -0.000978
0.50000000 -0.07292363 0.08887082 0.999999 0.000978 -0.000978
0.50000000 -0.06112999 0.31508133 0.999999 0.000978 -0.000978
0.50000000 0.04294929 0.41492194 0.999999 0.000978 -0.000978
0.49999997 0.15160885 -0.10410994 0.999999 0.000978 -0.000978
0.50000000 0.12675843 0.09462997 0.999999 0.000978 -0.000978
0.50000000 0.39304560 0.24064201 0.999999 0.000978 -0.000978
0.50000000 0.27826396 0.09747779 0.999999 0.000978 -0.000978
0.50000000 -0.21364647 0.29902875 0.999999 0.000978 -0.000978
0.49999997 -0.49019104 -0.30057332 0.999999 0.000978 -0.000978
0.50000000 -0.09343728 -0.29440984 0.999999 0.000978 -0.000978
0.50000000 -0.18182388 0.10999656 0.999999 0.000978 -0.000978
0.50000000 -0.19275013 0.08582994 0.999999 0.000978 -0.000978
0.50000000 -0.33006442 0.22650634 0.999999 0.000978 -0.000978
0.50000000 -0.08624887 0.04676613 0.999999 0.000978 -0.000978
0.50000000 -0.44063172 0.12770621 0.999999 0.000978 -0.000978
0.50000000 -0.43570441 0.04647427 0.999999 0.000978 -0.000978
0.49999997 -0.29854241 -0.24019410 0.999999 0.000978 -0.000978
0.49999997 0.05621609 -0.24805164 0.999999 0.000978 -0.000978
0.50000000 -0.15761518 -0.05636245 0.999999 0.000978 -0.000978
0.50000000 -0.28796673 0.20200595 0.999999 0.000978 -0.000978
0.50000000 -0.21628138 -0.03964806 0.999999 0.000978 -0.000978
0.49999997 0.19509855 -0.24820036 0.999999 0.000978 -0.000978
0.50000000 -0.36339712 0.05276906 0.999999 0.000978 -0.000978
0.50000000 -0.23165998 0.09837613 0.999999 0.000978 -0.000978
0.49999997 0.00241408 -0.38891172 0.999999 0.000978 -0.000978
-0.48269880 -0.50000000 0.23761371 0.000978 -0.999999 0.000978
-0.44670305 -0.49999997 -0.21821997 0.000978 -0.999999 0.000978
-0.40413961 -0.50000000 0.13192517 0.000978 -0.999999 0.000978
0.34015176 -0.50000000 0.40316594 0.000978 -0.999999 0.000978
-0.43510211 -0.49999997 -0.11419564 0.000978 -0.999999 0.000978
0.22534820 -0.50000000 0.47774997 0.000978 -0.999999 0.000978
0.15990838 -0.50000000 0.38463873 0.000978 -0.999999 0.000978
-0.47769424 -0.50000000 0.31663299 0.000978 -0.999999 0.000978
0.17077234 -0.50000000 0.43436193 0.000978 -0.999999 0.000978
0.32419327 -0.50000000 0.41980541 0.000978 -0.999999 0.000978
-0.37664780 -0.50000000 0.16056436 0.000978 -0.999999 0.000978
-0.29019582 -0.49999997 0.14521527 0.000978 -0.999999 0.000978
-0.48263738 -0.49999997 -0.16111359 0.000978 -0.999999 0.000978
-0.09015563 -0.49999997 0.00100726 0.000978 -0.999999 0.000978
-0.10689697 -0.49999997 0.33690739 0.000978 -0.999999 0.000978
-0.23462638 -0.49999997 0.12335113 0.000978 -0.999999 0.000978
-0.27379397 -0.49999997 -0.47015086 0.000978 -0.999999 0.000978
0.30585229 -0.49999997 -0.14415812 0.000978 -0.999999 0.000978
-0.04269223 -0.49999997 -0.46206054 0.000978 -0.999999 0.000978
-0.00648777 -0.49999997 -0.32913834 0.000978 -0.999999 0.000978
0.42438394 -0.49999997 -0.27454564 0.000978 -0.999999 0.000978
0.24884087 -0.49999997 -0.04259101 0.000978 -0.999999 0.000978
0.49053517 -0.49999997 -0.12981924 0.000978 -0.999999 0.000978
0.33117634 -0.50000000 0.18274629 0.000978 -0.999999 0.000978
0.37115371 -0.50000000 0.14367682 0.000978 -0.999999 0.000978
0.25468656 -0.50000000 0.09483451 0.000978 -0.999999 0.000978
-0.18777373 -0.49999997 -0.41893148 0.000978 -0.999999 0.000978
-0.00931367 -0.49999997 -0.14350307 0.000978 -0.999999 0.000978
0.29111192 -0.49999997 -0.26865196 0.000978 -0.999999 0.000978
0.07283449 -0.49999997 -0.22467348 0.000978 -0.999999 0.000978
0.10290021 -0.49999997 -0.43782768 0.000978 -0.999999 0.000978
0.42672354 -0.50000000 0.29749590 0.000978 -0.999999 0.000978
0.42731267 -0.50000000 0.39400518 0.000978 -0.999999 0.000978
-0.49276248 0.49999997 -0.34195203 0.000978 0.999999 -0.000978
-0.27129078 0.49999997 -0.33065969 0.000978 0.999999 -0.000978
0.09731635 0.49999997 -0.31251270 0.000978 0.999999 -0.000978
-0.25717041 0.49999997 -0.49516016 0.000978 0.999999 -0.000978
-0.31301773 0.49999997 -0.41837367 0.000978 0.999999 -0.000978
-0.20107377 0.50000000 -0.09093344 0.000978 0.999999 -0.000978
-0.08781815 0.50000000 0.07519700 0.000978 0.999999 -0.000978
-0.02563989 0.50000000 -0.01234865 0.000978 0.999999 -0.000978
0.16150329 0.49999997 -0.31337821 0.000978 0.999999 -0.000978
-0.15701321 0.50000000 0.08768757 0.000978 0.999999 -0.000978
0.06275108 0.49999997 -0.15435724 0.000978 0.999999 -0.000978
-0.46094525 0.50000000 0.38827398 0.000978 0.999999 -0.000978
-0.24713013 0.50000000 0.22100288 0.000978 0.999999 -0.000978
-0.30833039 0.49999997 -0.38901681 0.000978 0.999999 -0.000978
-0.08156729 0.49999997 -0.46211696 0.000978 0.999999 -0.000978
0.06596181 0.49999997 -0.45862192 0.000978 0.999999 -0.000978
-0.44841695 0.50000000 0.29312316 0.000978 0.999999 -0.000978
0.43056554 0.49999997 -0.16433227 0.000978 0.999999 -0.000978
-0.17554371 0.50000000 0.45408159 0.000978 0.999999 -0.000978
0.47824448 0.50000000 0.28817338 0.000978 0.999999 -0.000978
0.49992555 0.50000000 0.14388293 0.000978 0.999999 -0.000978
-0.25480556 0.50000000 0.31001252 0.000978 0.999999 -0.000978
0.43844187 0.50000000 0.21682072 0.000978 0.999999 -0.000978
0.47812271 0.49999997 -0.38564754 0.000978 0.999999 -0.000978
0.36252341 0.49999997 -0.07881713 0.000978 0.999999 -0.000978
-0.01349539 0.50000000 0.09363654 0.000978 0.999999 -0.000978
0.30638826 0.50000000 0.12813669 0.000978 0.999999 -0.000978
-0.07982559 0.50000000 0.42883334 0.000978 0.999999 -0.000978
0.34008530 0.49999997 -0.33196574 0.000978 0.999999 -0.000978
0.30479705 0.49999997 -0.25993848 0.000978 0.999999 -0.000978
-0.13572392 0.50000000 0.16310379 0.000978 0.999999 -0.000978
0.27215868 0.49999997 -0.21468723 0.000978 0.999999 -0.000978
0.22036320 0.49999997 -0.19271356 0.000978 0.999999 -0.000978
0.49172068 0.50000000 0.06981993 0.000978 0.999999 -0.000978
