//X Y Z Nx Ny Nz
200
-0.16824681 0.23715112 0.50000000 0.000978 0.000978 0.999999
-0.26085988 0.05232596 0.50000000 0.000978 0.000978 0.999999
-0.29486543 -0.09481995 0.50000000 0.000978 0.000978 0.999999
0.06708300 0.34491000 0.50000000 0.000978 0.000978 0.999999
0.15149301 0.42896518 0.50000000 0.000978 0.000978 0.999999
-0.48657361 0.43066356 0.50000000 0.000978 0.000978 0.999999
-0.23322389 0.42033932 0.50000000 0.000978 0.000978 0.999999
-0.43173668 -0.05085495 0.50000000 0.000978 0.000978 0.999999
-0.27004611 0.15357146 0.50000000 0.000978 0.000978 0.999999
-0.44021228 -0.40300077 0.50000000 0.000978 0.000978 0.999999
-0.44935051 0.25060931 0.50000000 0.000978 0.000978 0.999999
-0.33693457 -0.29960102 0.50000000 0.000978 0.000978 0.999999
-0.23790419 0.33638161 0.50000000 0.000978 0.000978 0.999999
-0.03937811 0.04025547 0.50000000 0.000978 0.000978 0.999999
0.13312960 0.40713701 0.50000000 0.000978 0.000978 0.999999
-0.36904246 0.44614160 0.50000000 0.000978 0.000978 0.999999
-0.45317441 0.26918179 0.50000000 0.000978 0.000978 0.999999
0.31090823 -0.14223957 0.50000000 0.000978 0.000978 0.999999
0.33893943 0.19332188 0.50000000 0.000978 0.000978 0.999999
0.07833111 0.07476121 0.50000000 0.000978 0.000978 0.999999
-0.11413494 -0.16690570 0.50000000 0.000978 0.000978 0.999999
0.29645658 0.16818047 0.50000000 0.000978 0.000978 0.999999
-0.09685527 -0.27811396 0.50000000 0.000978 0.000978 0.999999
0.32711419 -0.38255766 0.50000000 0.000978 0.000978 0.999999
0.40243873 -0.48773167 0.50000000 0.000978 0.000978 0.999999
-0.22612712 -0.40697089 0.50000000 0.000978 0.000978 0.999999
0.32754445 0.09951639 0.50000000 0.000978 0.000978 0.999999
0.29430759 0.01488161 0.50000000 0.000978 0.000978 0.999999
0.28000823 -0.03266373 0.50000000 0.000978 0.000978 0.999999
0.19936848 0.01859415 0.50000000 0.000978 0.000978 0.999999
0.46475381 -0.46084714 0.50000000 0.000978 0.000978 0.999999
0.02071247 -0.10559356 0.50000000 0.000978 0.000978 0.999999
0.35184437 -0.33591223 0.50000000 0.000978 0.000978 0.999999
0.01322278 -0.24607432 0.50000000 0.000978 0.000978 0.999999
0.25809234 -0.42400536 -0.50000000 0.000978 -0.000978 -0.999999
0.20697469 -0.36970782 -0.50000000 0.000978 -0.000978 -0.999999
0.33866912 -0.40417081 -0.49999997 0.000978 -0.000978 -0.999999
-0.36762005 -0.39503860 -0.50000000 0.000978 -0.000978 -0.999999
-0.48551774 -0.37933612 -0.49999997 0.000978 -0.000978 -0.999999
0.00034279 -0.26122370 -0.49999997 0.000978 -0.000978 -0.999999
-0.32015574 -0.39873481 -0.50000000 0.000978 -0.000978 -0.999999
-0.12873888 -0.28921634 -0.49999997 0.000978 -0.000978 -0.999999
-0.25593048 -0.48377120 -0.50000000 0.000978 -0.000978 -0.999999
-0.07572514 -0.28867793 -0.49999997 0.000978 -0.000978 -0.999999
-0.45760071 -0.47140110 -0.49999997 0.000978 -0.000978 -0.999999
0.32322949 -0.40332085 -0.50000000 0.000978 -0.000978 -0.999999
-0.44424492 0.37217414 -0.50000006 0.000978 -0.000978 -0.999999
-0.31933504 -0.25404203 -0.50000000 0.000978 -0.000978 -0.999999
-0.38270873 0.07518369 -0.50000006 0.000978 -0.000978 -0.999999
0.16125709 -0.30484235 -0.50000000 0.000978 -0.000978 -0.999999
-0.27873969 -0.04979602 -0.50000006 0.000978 -0.000978 -0.999999
-0.24602295 0.44979334 -0.50000006 0.000978 -0.000978 -0.999999
0.13129035 0.40434214 -0.50000006 0.000978 -0.000978 -0.999999
0.09447008 0.01276761 -0.50000000 0.000978 -0.000978 -0.999999
0.23249763 0.11148092 -0.50000000 0.000978 -0.000978 -0.999999
0.38827050 0.04571304 -0.50000000 0.000978 -0.000978 -0.999999
0.47301200 -0.18158972 -0.50000000 0.000978 -0.000978 -0.999999
-0.42221409 0.48524401 -0.50000006 0.000978 -0.000978 -0.999999
0.41580728 0.28584942 -0.50000006 0.000978 -0.000978 -0.999999
-0.01570353 0.33616257 -0.50000006 0.000978 -0.000978 -0.999999
-0.02526301 0.25192600 -0.50000006 0.000978 -0.000978 -0.999999
0.25260612 -0.00635773 -0.50000000 0.000978 -0.000978 -0.999999
0.39786628 0.10613498 -0.50000000 0.000978 -0.000978 -0.999999
0.02266281 0.41128558 -0.50000006 0.000978 -0.000978 -0.999999
0.35844332 0.04838300 -0.50000000 0.000978 -0.000978 -0.999999
-0.19254823 0.27263236 -0.50000006 0.000978 -0.000978 -0.999999
0.26753843 -0.25758648 -0.50000000 0.000978 -0.000978 -0.999999
-0.49999997 0.22236186 -0.35560906 -0.999999 0.000978 0.000978
-0.49999997 -0.32845470 -0.44518751 -0.999999 0.000978 0.000978
-0.49999997 0.28650725 -0.02790892 -0.999999 0.000978 0.000978
-0.49999997 0.23717776 -0.17067033 -0.999999 0.000978 0.000978
-0.50000000 0.44431442 0.38827527 -0.999999 0.000978 0.000978
-0.49999997 -0.23745146 -0.26830387 -0.999999 0.000978 0.000978
-0.49999997 -0.17104447 -0.43872723 -0.999999 0.000978 0.000978
-0.49999997 0.26414689 -0.12523019 -0.999999 0.000978 0.000978
-0.50000000 0.42548338 0.11511773 -0.999999 0.000978 0.000978
-0.50000000 0.41446429 0.05230463 -0.999999 0.000978 0.000978
-0.50000000 0.49127913 0.12883633 -0.999999 0.000978 0.000978
-0.50000000 0.18445575 0.16629356 -0.999999 0.000978 0.000978
-0.49999997 0.16053191 -0.20534000 -0.999999 0.000978 0.000978
-0.50000000 0.16234338 0.07939374 -0.999999 0.000978 0.000978
-0.49999997 -0.08720192 -0.36911798 -0.999999 0.000978 0.000978
-0.49999997 0.40667981 -0.15058428 -0.999999 0.000978 0.000978
-0.49999997 0.04021060 -0.44466543 -0.999999 0.000978 0.000978
-0.50000000 0.00799683 0.22193688 -0.999999 0.000978 0.000978
-0.49999997 -0.24932215 0.24588463 -0.999999 0.000978 0.000978
-0.49999997 -0.45560482 -0.37727818 -0.999999 0.000978 0.000978
-0.50000000 0.25771645 0.31138048 -0.999999 0.000978 0.000978
-0.50000000 -0.44896597 0.16488443 -0.999999 0.000978 0.000978
-0.49999997 -0.42825639 -0.39806890 -0.999999 0.000978 0.000978
-0.50000000 -0.49923587 0.21946196 -0.999999 0.000978 0.000978
-0.50000000 0.02907261 0.29311490 -0.999999 0.000978 0.000978
-0.49999997 -0.41398472 -0.14064053 -0.999999 0.000978 0.000978
-0.50000000 -0.18598321 0.33049384 -0.999999 0.000978 0.000978
-0.49999997 -0.41862488 -0.35826224 -0.999999 0.000978 0.000978
-0.50000000 0.29776773 0.45494640 -0.999999 0.000978 0.000978
-0.50000000 0.16281518 0.34430045 -0.999999 0.000978 0.000978
-0.49999997 -0.20234618 0.21324807 -0.999999 0.000978 0.000978
-0.50000000 0.28830096 0.48164517 -0.999999 0.000978 0.000978
-0.50000000 -0.41710645 0.37725922 -0.999999 0.000978 0.000978
-0.49999997 -0.25914845 -0.03101508 -0.999999 0.000978 0.000978
0.49999997 0.43121582 -0.04727948 0.999999 0.000978 -0.000978
0.50000000 0.09798819 0.36365774 0.999999 0.000978 -0.000978
0.50000000 0.35413396 0.37606803 0.999999 0.000978 -0.000978
0.49999997 0.30151632 -0.08654016 0.999999 0.000978 -0.000978
0.50000000 0.21018004 0.03653726 0.999999 0.000978 -0.000978
0.50000000 0.21404496 0.34450388 0.999999 0.000978 -0.000978
0.49999997 0.33978921 -0.17582244 0.999999 0.000978 -0.000978
0.49999997 0.36051789 -0.03764999 0.999999 0.000978 -0.000978
0.50000000 0.00886225 0.04319876 0.999999 0.000978 -0.000978
0.49999997 0.43410683 -0.00741333 0.999999 0.000978 -0.000978
0.50000000 0.04366395 0.00967103 0.999999 0.000978 -0.000978
0.50000000 0.38037902 0.29594633 0.999999 0.000978 -0.000978
0.50000000 0.42266133 0.10090885 0.999999 0.000978 -0.000978
0.50000000 0.47529685 0.41647080 0.999999 0.000978 -0.000978
0.50000000 0.21893698 0.13498220 0.999999 0.000978 -0.000978
0.50000000 0.45536181 0.09980294 0.999999 0.000978 -0.000978
0.50000000 -0.09573001 -0.24211636 0.999999 0.000978 -0.000978
0.49999997 -0.49394706 -0.19665289 0.999999 0.000978 -0.000978
0.50000000 -0.46948594 0.03577579 0.999999 0.000978 -0.000978
0.49999997 0.24514279 -0.39021558 0.999999 0.000978 -0.000978
0.50000000 -0.34745759 0.23413159 0.999999 0.000978 -0.000978
0.49999997 -0.43815318 -0.44976765 0.999999 0.000978 -0.000978
0.49999997 -0.17052755 -0.46379778 0.999999 0.000978 -0.000978
0.49999997 0.14659122 -0.33396053 0.999999 0.000978 -0.000978
0.50000000 -0.48908979 0.01842083 0.999999 0.000978 -0.000978
0.49999997 -0.26332033 -0.23679231 0.999999 0.000978 -0.000978
0.50000000 -0.35653663 -0.02148828 0.999999 0.000978 -0.000978
0.49999997 0.26761743 -0.48549268 0.999999 0.000978 -0.000978
0.49999997 -0.48298877 -0.28831682 0.999999 0.000978 -0.000978
0.49999997 -0.22154331 -0.44492024 0.999999 0.000978 -0.000978
0.49999997 -0.41763303 -0.37305474 0.999999 0.000978 -0.000978
0.49999997 -0.44752830 -0.05399279 0.999999 0.000978 -0.000978
-0.07895216 -0.49999997 0.06710111 0.000978 -0.999999 0.000978
-0.36600816 -0.49999997 -0.26369345 0.000978 -0.999999 0.000978
-0.12621701 -0.49999997 0.07167327 0.000978 -0.999999 0.000978
-0.43556675 -0.49999997 -0.02561402 0.000978 -0.999999 0.000978
-0.29016519 -0.49999997 0.17008477 0.000978 -0.999999 0.000978
-0.30731124 -0.49999997 -0.21750638 0.000978 -0.999999 0.000978
-0.35249007 -0.49999997 -0.22265828 0.000978 -0.999999 0.000978
0.09290573 -0.50000000 0.13742587 0.000978 -0.999999 0.000978
-0.07727510 -0.49999997 0.22157431 0.000978 -0.999999 0.000978
-0.26649755 -0.49999997 0.06626409 0.000978 -0.999999 0.000978
0.30117956 -0.50000000 0.32173541 0.000978 -0.999999 0.000978
-0.08406386 -0.49999997 0.39040616 0.000978 -0.999999 0.000978
0.11255834 -0.50000000 0.47775695 0.000978 -0.999999 0.000978
-0.11791998 -0.49999997 -0.05283083 0.000978 -0.999999 0.000978
-0.40350404 -0.50000000 0.34509403 0.000978 -0.999999 0.000978
0.12641791 -0.50000000 0.30645192 0.000978 -0.999999 0.000978
-0.38852906 -0.49999997 -0.22555758 0.000978 -0.999999 0.000978
-0.32039845 -0.49999997 -0.36036628 0.000978 -0.999999 0.000978
0.22754365 -0.50000000 0.13364583 0.000978 -0.999999 0.000978
0.06147440 -0.49999997 -0.25737244 0.000978 -0.999999 0.000978
0.37501147 -0.49999997 -0.28604019 0.000978 -0.999999 0.000978
0.40058252 -0.49999997 -0.10070977 0.000978 -0.999999 0.000978
0.39534128 -0.50000000 0.10929930 0.000978 -0.999999 0.000978
0.14848310 -0.50000000 0.00140774 0.000978 -0.999999 0.000978
0.03255114 -0.49999997 -0.12317109 0.000978 -0.999999 0.000978
-0.43548170 -0.49999997 -0.47159514 0.000978 -0.999999 0.000978
-0.42059034 -0.49999997 -0.47180828 0.000978 -0.999999 0.000978
0.27881905 -0.49999997 -0.25265652 0.000978 -0.999999 0.000978
0.00944005 -0.49999997 -0.27942005 0.000978 -0.999999 0.000978
0.27041861 -0.49999997 -0.07968545 0.000978 -0.999999 0.000978
0.44933707 -0.49999997 -0.09510320 0.000978 -0.999999 0.000978
0.21181333 -0.49999997 -0.47329161 0.000978 -0.999999 0.000978
0.42069042 -0.50000000 0.40173650 0.000978 -0.999999 0.000978
0.22295299 -0.49999997 -0.37055230 0.000978 -0.999999 0.000978
-0.15491238 0.50000000 0.04583754 0.000978 0.999999 -0.000978
-0.10291463 0.50000000 -0.04510482 0.000978 0.999999 -0.000978
-0.27559048 0.50000000 0.23689805 0.000978 0.999999 -0.000978
0.01464519 0.49999997 -0.20676278 0.000978 0.999999 -0.000978
0.33315441 0.49999997 -0.33452755 0.000978 0.999999 -0.000978
-0.45210540 0.50000000 0.28548676 0.000978 0.999999 -0.000978
0.30960116 0.49999997 -0.36797917 0.000978 0.999999 -0.000978
0.00049201 0.49999997 -0.27165490 0.000978 0.999999 -0.000978
-0.35361767 0.50000000 0.14800254 0.000978 0.999999 -0.000978
-0.48972291 0.50000000 0.47319838 0.000978 0.999999 -0.000978
-0.41760600 0.50000000 0.24896203 0.000978 0.999999 -0.000978
0.08385852 0.49999997 -0.33254349 0.000978 0.999999 -0.000978
0.24046955 0.49999997 -0.26194757 0.000978 0.999999 -0.000978
-0.11046556 0.50000000 0.07791840 0.000978 0.999999 -0.000978
0.01961967 0.49999997 -0.28518438 0.000978 0.999999 -0.000978
-0.21486855 0.50000000 0.14172065 0.000978 0.999999 -0.000978
-0.27259362 0.49999997 -0.28091431 0.000978 0.999999 -0.000978
0.26245341 0.50000000 0.13794020 0.000978 0.999999 -0.000978
0.16065505 0.50000000 0.37439126 0.000978 0.999999 -0.000978
-0.03312424 0.50000000 0.27089828 0.000978 0.999999 -0.000978
-0.20325004 0.50000000 0.45209384 0.000978 0.999999 -0.000978
0.00537372 0.50000000 0.40326244 0.000978 0.999999 -0.000978
-0.11878455 0.50000000 0.26280689 0.000978 0.999999 -0.000978
0.34996808 0.50000000 0.37832949 0.000978 0.999999 -0.000978
0.21795328 0.50000000 0.40619391 0.000978 0.999999 -0.000978
0.48833323 0.49999997 -0.28168470 0.000978 0.999999 -0.000978
-0.16402799 0.50000000 0.34673029 0.000978 0.999999 -0.000978
0.46980134 0.50000000 0.39222997 0.000978 0.999999 -0.000978
0.31687424 0.50000000 0.20181087 0.000978 0.999999 -0.000978
0.02887028 0.50000000 0.26570225 0.000978 0.999999 -0.000978
0.34376520 0.49999997 -0.28003395 0.000978 0.999999 -0.000978
0.40762424 0.50000000 0.31509030 0.000978 0.999999 -0.000978
0.01242009 0.50000000 0.11990225 0.000978 0.999999 -0.000978
