//X Y Z Nx Ny Nz
200
0.08269197 0.11365858 0.50000000 0.000978 0.000978 0.999999
0.37387127 0.41877571 0.50000000 0.000978 0.000978 0.999999
-0.29624784 0.30124104 0.50000000 0.000978 0.000978 0.999999
-0.25158602 0.36843914 0.50000000 0.000978 0.000978 0.999999
0.08154786 0.25676167 0.50000000 0.000978 0.000978 0.999999
-0.03414422 0.00278895 0.50000000 0.000978 0.000978 0.999999
0.22339869 0.37857091 0.50000000 0.000978 0.000978 0.999999
-0.45774654 0.20366612 0.50000000 0.000978 0.000978 0.999999
0.26777673 0.29543638 0.50000000 0.000978 0.000978 0.999999
0.03194892 0.34504294 0.50000000 0.000978 0.000978 0.999999
-0.37911773 0.05036053 0.50000000 0.000978 0.000978 0.999999
-0.35298005 -0.07681215 0.50000000 0.000978 0.000978 0.999999
-0.48393896 0.23923108 0.50000000 0.000978 0.000978 0.999999
-0.47456652 -0.22623311 0.50000000 0.000978 0.000978 0.999999
-0.27012163 -0.19633564 0.50000000 0.000978 0.000978 0.999999
-0.15299690 0.08351508 0.50000000 0.000978 0.000978 0.999999
-0.42770702 0.43638235 0.50000000 0.000978 0.000978 0.999999
0.41145730 -0.35771745 0.50000000 0.000978 0.000978 0.999999
0.24754238 0.09538770 0.50000000 0.000978 0.000978 0.999999
0.39254865 0.00106037 0.50000000 0.000978 0.000978 0.999999
0.01636359 -0.40273690 0.50000000 0.000978 0.000978 0.999999
0.25063431 -0.44887459 0.50000000 0.000978 0.000978 0.999999
0.33856520 -0.18706504 0.50000000 0.000978 0.000978 0.999999
-0.09251672 -0.13460919 0.50000000 0.000978 0.000978 0.999999
0.30537194 0.08090025 0.50000000 0.000978 0.000978 0.999999
0.17780182 0.07210237 0.50000000 0.000978 0.000978 0.999999
0.38315260 -0.37644827 0.50000000 0.000978 0.000978 0.999999
-0.12784851 -0.29744905 0.50000000 0.000978 0.000978 0.999999
0.29424700 -0.01184204 0.50000000 0.000978 0.000978 0.999999
0.31243402 -0.36649579 0.50000000 0.000978 0.000978 0.999999
0.44421276 0.06598091 0.50000000 0.000978 0.000978 0.999999
0.18600938 -0.00360161 0.50000000 0.000978 0.000978 0.999999
0.08870831 -0.06395170 0.50000000 0.000978 0.000978 0.999999
0.30359846 0.22294039 0.50000000 0.000978 0.000978 0.999999
-0.02195778 -0.18009779 -0.49999997 0.000978 -0.000978 -0.999999
0.20454973 -0.36515343 -0.50000000 0.000978 -0.000978 -0.999999
0.05227679 -0.24398018 -0.49999997 0.000978 -0.000978 -0.999999
0.13439006 -0.45258114 -0.49999997 0.000978 -0.000978 -0.999999
-0.03861403 -0.47536576 -0.49999994 0.000978 -0.000978 -0.999999
-0.43748894 0.20410641 -0.50000006 0.000978 -0.000978 -0.999999
-0.15297821 -0.18938047 -0.49999997 0.000978 -0.000978 -0.999999
-0.25218499 0.06990516 -0.50000006 0.000978 -0.000978 -0.999999
-0.36094889 -0.03411251 -0.50000000 0.000978 -0.000978 -0.999999
-0.41607329 0.29904643 -0.50000006 0.000978 -0.000978 -0.999999
-0.22793058 -0.34442964 -0.50000000 0.000978 -0.000978 -0.999999
-0.38093540 -0.14056489 -0.50000000 0.000978 -0.000978 -0.999999
0.10184842 -0.15160012 -0.50000000 0.000978 -0.000978 -0.999999
-0.25677997 -0.11365476 -0.50000000 0.000978 -0.000978 -0.999999
0.10706276 -0.48990980 -0.49999997 0.000978 -0.000978 -0.999999
0.44879919 -0.48925328 -0.49999997 0.000978 -0.000978 -0.999999
-0.14294177 -0.03411132 -0.49999997 0.000978 -0.000978 -0.999999
0.12842679 0.07501841 -0.50000000 0.000978 -0.000978 -0.999999
0.18986633 0.04210415 -0.50000000 0.000978 -0.000978 -0.999999
0.07854849 0.29947138 -0.50000006 0.000978 -0.000978 -0.999999
0.03045877 0.38702276 -0.50000006 0.000978 -0.000978 -0.999999
0.39757016 -0.03983790 -0.50000000 0.000978 -0.000978 -0.999999
0.09502581 0.03876159 -0.50000000 0.000978 -0.000978 -0.999999
0.38861153 0.13426325 -0.50000000 0.000978 -0.000978 -0.999999
0.23291361 -0.18650061 -0.50000000 0.000978 -0.000978 -0.999999
-0.30664450 0.38257760 -0.50000006 0.000978 -0.000978 -0.999999
0.10405236 0.43257970 -0.50000006 0.000978 -0.000978 -0.999999
0.49041012 -0.35613871 -0.49999997 0.000978 -0.000978 -0.999999
0.33534300 -0.09666955 -0.50000000 0.000978 -0.000978 -0.999999
0.03263359 0.29073364 -0.50000006 0.000978 -0.000978 -0.999999
-0.17976707 0.22785348 -0.50000006 0.000978 -0.000978 -0.999999
0.20119655 0.16151330 -0.50000000 0.000978 -0.000978 -0.999999
0.48844022 -0.30753601 -0.50000000 0.000978 -0.000978 -0.999999
0.39768940 -0.14923471 -0.50000000 0.000978 -0.000978 -0.999999
-0.49999997 -0.20840812 -0.47943306 -0.999999 0.000978 0.000978
-0.49999997 0.05029474 -0.09791166 -0.999999 0.000978 0.000978
-0.49999997 0.24247754 -0.37733123 -0.999999 0.000978 0.000978
-0.49999997 0.10780531 -0.26820815 -0.999999 0.000978 0.000978
-0.49999997 0.31803405 -0.28344458 -0.999999 0.000978 0.000978
-0.49999997 -0.10645336 -0.14152175 -0.999999 0.000978 0.000978
-0.50000000 0.23836681 0.12887037 -0.999999 0.000978 0.000978
-0.49999997 -0.19377065 -0.45286635 -0.999999 0.000978 0.000978
-0.49999997 0.37840396 -0.31517830 -0.999999 0.000978 0.000978
-0.49999997 -0.25915200 -0.48767981 -0.999999 0.000978 0.000978
-0.49999997 0.23158315 -0.15170759 -0.999999 0.000978 0.000978
-0.49999997 -0.23195557 -0.28333291 -0.999999 0.000978 0.000978
-0.50000000 0.44602653 0.19210696 -0.999999 0.000978 0.000978
-0.49999997 0.34777784 -0.08715388 -0.999999 0.000978 0.000978
-0.49999997 0.35732672 -0.48056710 -0.999999 0.000978 0.000978
-0.49999997 0.25409201 -0.44178182 -0.999999 0.000978 0.000978
-0.49999997 0.30880505 -0.15157387 -0.999999 0.000978 0.000978
-0.49999997 -0.30604824 -0.11877958 -0.999999 0.000978 0.000978
-0.49999997 -0.08454478 0.27034017 -0.999999 0.000978 0.000978
-0.50000000 -0.49258167 0.20654109 -0.999999 0.000978 0.000978
-0.50000000 0.07348135 0.36215612 -0.999999 0.000978 0.000978
-0.50000000 -0.07534915 0.43198556 -0.999999 0.000978 0.000978
-0.49999997 -0.13799173 0.23584560 -0.999999 0.000978 0.000978
-0.49999997 -0.31545192 0.06207316 -0.999999 0.000978 0.000978
-0.49999997 -0.15410328 -0.04228354 -0.999999 0.000978 0.000978
-0.49999997 -0.20884991 0.11138716 -0.999999 0.000978 0.000978
-0.50000000 0.07138249 0.30185848 -0.999999 0.000978 0.000978
-0.49999997 -0.00396997 0.30473337 -0.999999 0.000978 0.000978
-0.49999997 -0.22100461 0.02924246 -0.999999 0.000978 0.000978
-0.49999997 -0.25501978 0.11349714 -0.999999 0.000978 0.000978
-0.50000000 -0.33176497 0.27631932 -0.999999 0.000978 0.000978
-0.50000000 0.12885043 0.33896387 -0.999999 0.000978 0.000978
-0.49999997 -0.33868051 -0.30006891 -0.999999 0.000978 0.000978
0.50000000 -0.28053790 0.38554850 0.999999 0.000978 -0.000978
0.50000000 0.28251973 0.44330817 0.999999 0.000978 -0.000978
0.50000000 0.26100379 0.35275406 0.999999 0.000978 -0.000978
0.50000000 -0.32865250 0.36155337 0.999999 0.000978 -0.000978
0.50000000 0.30487543 0.15394464 0.999999 0.000978 -0.000978
0.50000000 0.41036689 0.02442142 0.999999 0.000978 -0.000978
0.50000000 0.34513581 0.31053022 0.999999 0.000978 -0.000978
0.50000000 -0.15903693 0.41767931 0.999999 0.000978 -0.000978
0.50000000 0.25375968 0.31495336 0.999999 0.000978 -0.000978
0.50000000 0.32746321 0.33647296 0.999999 0.000978 -0.000978
0.50000000 -0.04554743 0.36052155 0.999999 0.000978 -0.000978
0.50000000 0.42616779 0.17231190 0.999999 0.000978 -0.000978
0.50000000 0.08952576 0.27865216 0.999999 0.000978 -0.000978
0.50000000 -0.17158480 0.25375307 0.999999 0.000978 -0.000978
0.50000000 0.49458715 0.12072346 0.999999 0.000978 -0.000978
0.50000000 -0.01076842 0.03798863 0.999999 0.000978 -0.000978
0.50000000 -0.01232570 -0.25087774 0.999999 0.000978 -0.000978
0.49999997 -0.42566901 -0.13119112 0.999999 0.000978 -0.000978
0.49999997 -0.30882573 -0.46360570 0.999999 0.000978 -0.000978
0.50000000 -0.37370807 0.30618685 0.999999 0.000978 -0.000978
0.50000000 -0.42022231 0.06883760 0.999999 0.000978 -0.000978
0.49999997 0.14294460 -0.18129304 0.999999 0.000978 -0.000978
0.50000000 -0.19555962 0.03449056 0.999999 0.000978 -0.000978
0.50000000 -0.28984126 0.06036036 0.999999 0.000978 -0.000978
0.49999997 0.35407111 -0.47495106 0.999999 0.000978 -0.000978
0.50000000 -0.48355815 0.26491576 0.999999 0.000978 -0.000978
0.49999997 -0.33104396 -0.25573045 0.999999 0.000978 -0.000978
0.50000000 -0.13632786 -0.02339867 0.999999 0.000978 -0.000978
0.49999997 -0.11142632 -0.42232201 0.999999 0.000978 -0.000978
0.49999997 0.40127370 -0.40897653 0.999999 0.000978 -0.000978
0.49999997 -0.35612267 -0.30345029 0.999999 0.000978 -0.000978
0.50000000 -0.02006039 -0.41772348 0.999999 0.000978 -0.000978
0.49999997 -0.15415451 -0.47201869 0.999999 0.000978 -0.000978
-0.42979413 -0.50000000 0.13398287 0.000978 -0.999999 0.000978
-0.22483203 -0.49999997 0.13471934 0.000978 -0.999999 0.000978
-0.44565916 -0.50000000 0.25175568 0.000978 -0.999999 0.000978
-0.39830810 -0.50000000 0.47020480 0.000978 -0.999999 0.000978
-0.10920694 -0.49999997 0.13196516 0.000978 -0.999999 0.000978
-0.33272523 -0.50000000 0.20794278 0.000978 -0.999999 0.000978
-0.46484008 -0.50000000 0.26419151 0.000978 -0.999999 0.000978
0.03230736 -0.50000000 0.47732779 0.000978 -0.999999 0.000978
0.26627681 -0.50000000 0.32904339 0.000978 -0.999999 0.000978
-0.19761449 -0.49999997 0.18229431 0.000978 -0.999999 0.000978
0.11445066 -0.50000000 0.37956935 0.000978 -0.999999 0.000978
-0.29061192 -0.49999997 -0.00768733 0.000978 -0.999999 0.000978
0.23942742 -0.50000000 0.39283824 0.000978 -0.999999 0.000978
-0.25848392 -0.49999997 0.10587546 0.000978 -0.999999 0.000978
-0.26953745 -0.49999997 -0.18514249 0.000978 -0.999999 0.000978
-0.43646857 -0.49999997 -0.00613034 0.000978 -0.999999 0.000978
0.16311574 -0.50000000 0.09079516 0.000978 -0.999999 0.000978
-0.12321615 -0.49999997 -0.17016554 0.000978 -0.999999 0.000978
0.44023430 -0.49999997 -0.12641722 0.000978 -0.999999 0.000978
0.45894903 -0.49999997 -0.15039682 0.000978 -0.999999 0.000978
0.24519777 -0.49999997 -0.14246905 0.000978 -0.999999 0.000978
0.32489824 -0.49999997 -0.15902221 0.000978 -0.999999 0.000978
0.32147792 -0.50000000 0.05387479 0.000978 -0.999999 0.000978
0.26928335 -0.50000000 0.09592271 0.000978 -0.999999 0.000978
0.07151428 -0.49999997 -0.18062913 0.000978 -0.999999 0.000978
0.08735491 -0.49999997 -0.38741085 0.000978 -0.999999 0.000978
0.17566986 -0.49999997 -0.30546790 0.000978 -0.999999 0.000978
-0.18687062 -0.49999997 -0.31353530 0.000978 -0.999999 0.000978
0.35801604 -0.50000000 0.01439804 0.000978 -0.999999 0.000978
0.38769186 -0.49999997 -0.29133323 0.000978 -0.999999 0.000978
-0.18471991 -0.49999997 -0.39983639 0.000978 -0.999999 0.000978
0.14455098 -0.49999997 -0.01454937 0.000978 -0.999999 0.000978
-0.42458224 0.49999997 -0.35542053 0.000978 0.999999 -0.000978
-0.31937221 0.50000000 0.22511619 0.000978 0.999999 -0.000978
-0.35706225 0.50000000 -0.09973207 0.000978 0.999999 -0.000978
-0.32309717 0.50000000 0.26784590 0.000978 0.999999 -0.000978
-0.36549848 0.49999997 -0.17700219 0.000978 0.999999 -0.000978
-0.26067454 0.50000000 -0.02330619 0.000978 0.999999 -0.000978
-0.47551206 0.49999997 -0.07369065 0.000978 0.999999 -0.000978
-0.46333933 0.50000000 0.21420605 0.000978 0.999999 -0.000978
0.08439866 0.49999997 -0.49091536 0.000978 0.999999 -0.000978
-0.03018832 0.50000000 -0.18003190 0.000978 0.999999 -0.000978
-0.17707363 0.50000000 -0.20810038 0.000978 0.999999 -0.000978
-0.34100008 0.50000000 0.01327521 0.000978 0.999999 -0.000978
-0.43779212 0.50000000 0.37758410 0.000978 0.999999 -0.000978
-0.28291178 0.49999997 -0.32738721 0.000978 0.999999 -0.000978
-0.25648415 0.50000000 0.06179447 0.000978 0.999999 -0.000978
0.13806674 0.49999997 -0.26842231 0.000978 0.999999 -0.000978
-0.11511633 0.50000000 -0.32779023 0.000978 0.999999 -0.000978
0.28047296 0.50000000 0.10150465 0.000978 0.999999 -0.000978
0.46832591 0.50000000 0.10066044 0.000978 0.999999 -0.000978
-0.16735727 0.50000000 0.28746849 0.000978 0.999999 -0.000978
0.46588057 0.50000000 0.11928409 0.000978 0.999999 -0.000978
0.18619269 0.50000000 0.17191258 0.000978 0.999999 -0.000978
0.38281798 0.49999997 -0.16437072 0.000978 0.999999 -0.000978
0.42148036 0.49999997 -0.23945618 0.000978 0.999999 -0.000978
0.20617375 0.50000000 0.00143760 0.000978 0.999999 -0.000978
0.43720239 0.49999997 -0.41124833 0.000978 0.999999 -0.000978
-0.23649321 0.50000000 0.49274239 0.000978 0.999999 -0.000978
-0.01009920 0.50000000 0.06540468 0.000978 0.999999 -0.000978
0.28163296 0.50000000 0.30363762 0.000978 0.999999 -0.000978
0.10420001 0.50000000 0.37315536 0.000978 0.999999 -0.000978
0.07352832 0.50000000 0.15318972 0.000978 0.999999 -0.000978
0.01193669 0.50000000 0.36527038 0.000978 0.999999 -0.000978
0.17592490 0.50000000 0.39762071 0.000978 0.999999 -0.000978
0.16069257 0.50000000 0.15151423 0.000978 0.999999 -0.000978
