//X Y Z Nx Ny Nz
204
1.31822693 0.34693581 -1.50000000 0.000978 0.000978 -0.999999
1.20269215 0.01376689 -1.50000000 0.000978 0.000978 -0.999999
1.55762923 0.24852319 -1.50000000 0.000978 0.000978 -0.999999
0.46229386 0.15704072 -1.50000000 0.000978 0.000978 -0.999999
1.47710431 0.62656701 -1.50000000 0.000978 0.000978 -0.999999
1.68399179 0.61853182 -1.50000000 0.000978 0.000978 -0.999999
1.06331658 0.92463142 -1.50000000 0.000978 0.000978 -0.999999
1.12396288 0.87874138 -1.50000000 0.000978 0.000978 -0.999999
1.31823075 1.27724552 -1.50000000 0.000978 0.000978 -0.999999
0.27877450 0.33587223 -1.50000000 0.000978 0.000978 -0.999999
0.77085924 1.08704805 -1.50000000 0.000978 0.000978 -0.999999
1.23989844 1.41119790 -1.50000000 0.000978 0.000978 -0.999999
0.76927572 1.56945038 -1.50000000 0.000978 0.000978 -0.999999
0.37897536 1.40307558 -1.50000000 0.000978 0.000978 -0.999999
0.97676229 1.70703101 -1.50000000 0.000978 0.000978 -0.999999
0.14492251 1.45978975 -1.50000000 0.000978 0.000978 -0.999999
0.02466816 0.33445120 -1.50000000 0.000978 0.000978 -0.999999
0.10535284 1.18545532 -1.50000000 0.000978 0.000978 -0.999999
-0.13783529 1.10087061 -1.50000000 0.000978 0.000978 -0.999999
-0.06080062 1.31846941 -1.50000000 0.000978 0.000978 -0.999999
-0.02698187 0.69712508 -1.50000000 0.000978 0.000978 -0.999999
-0.86670047 1.63725913 -1.50000000 0.000978 0.000978 -0.999999
-0.45633811 0.81845671 -1.50000000 0.000978 0.000978 -0.999999
-0.64318544 1.20813394 -1.50000000 0.000978 0.000978 -0.999999
-0.72232068 1.07227182 -1.50000000 0.000978 0.000978 -0.999999
-0.91864938 1.42527246 -1.50000000 0.000978 0.000978 -0.999999
-1.09672713 1.30908275 -1.50000000 0.000978 0.000978 -0.999999
-1.27043176 0.76843482 -1.50000000 0.000978 0.000978 -0.999999
-1.26223242 1.14146435 -1.50000000 0.000978 0.000978 -0.999999
-1.10310793 1.09586060 -1.50000000 0.000978 0.000978 -0.999999
-0.12571593 0.05464059 -1.50000000 0.000978 0.000978 -0.999999
-1.44042957 0.60168940 -1.50000000 0.000978 0.000978 -0.999999
-0.58715677 0.32258418 -1.50000000 0.000978 0.000978 -0.999999
-0.18607298 0.01772732 -1.50000000 0.000978 0.000978 -0.999999
-0.98684424 0.02493778 -1.50000000 0.000978 0.000978 -0.999999
-1.21785462 0.31515861 -1.50000000 0.000978 0.000978 -0.999999
-1.90678120 -0.12357257 -1.50000000 0.000978 0.000978 -0.999999
-0.28698260 -0.00597882 -1.50000000 0.000978 0.000978 -0.999999
-0.68686712 -0.08864392 -1.50000000 0.000978 0.000978 -0.999999
-0.85064322 -0.32219833 -1.50000000 0.000978 0.000978 -0.999999
-1.55201542 -0.78973579 -1.50000000 0.000978 0.000978 -0.999999
-0.66508311 -0.27881429 -1.50000000 0.000978 0.000978 -0.999999
-1.22069049 -0.79673743 -1.50000000 0.000978 0.000978 -0.999999
-0.44588870 -0.37446493 -1.50000000 0.000978 0.000978 -0.999999
-1.42693210 -0.94443655 -1.50000000 0.000978 0.000978 -0.999999
-1.14720249 -1.33505499 -1.50000000 0.000978 0.000978 -0.999999
-0.44257206 -0.75633436 -1.50000000 0.000978 0.000978 -0.999999
-0.78879917 -0.87652653 -1.50000000 0.000978 0.000978 -0.999999
-0.84960699 -1.59325302 -1.50000000 0.000978 0.000978 -0.999999
-0.33440876 -1.11367822 -1.50000000 0.000978 0.000978 -0.999999
-0.28766128 -0.75893104 -1.50000000 0.000978 0.000978 -0.999999
-0.10540152 -1.66564941 -1.50000000 0.000978 0.000978 -0.999999
-0.23005520 -1.64014292 -1.50000000 0.000978 0.000978 -0.999999
-0.19501939 -1.79314482 -1.50000000 0.000978 0.000978 -0.999999
0.35548505 -1.72393751 -1.50000000 0.000978 0.000978 -0.999999
0.04818403 -1.94077647 -1.50000000 0.000978 0.000978 -0.999999
0.31764838 -1.69118571 -1.50000000 0.000978 0.000978 -0.999999
0.17816705 -0.38877016 -1.50000000 0.000978 0.000978 -0.999999
0.37388340 -1.37033296 -1.50000000 0.000978 0.000978 -0.999999
0.91897136 -1.64478040 -1.50000000 0.000978 0.000978 -0.999999
0.62821388 -0.68481600 -1.50000000 0.000978 0.000978 -0.999999
1.34347057 -1.37366688 -1.50000000 0.000978 0.000978 -0.999999
1.15032423 -1.35340905 -1.50000000 0.000978 0.000978 -0.999999
0.77385068 -0.54900432 -1.50000000 0.000978 0.000978 -0.999999
1.02385473 -1.00903392 -1.50000000 0.000978 0.000978 -0.999999
1.31421602 -0.88881552 -1.50000000 0.000978 0.000978 -0.999999
1.42641556 -0.56912601 -1.50000000 0.000978 0.000978 -0.999999
1.77019370 -0.61238050 -1.50000000 0.000978 0.000978 -0.999999
1.79074597 -0.56558275 -1.50000000 0.000978 0.000978 -0.999999
1.42434776 -0.20409337 -1.50000000 0.000978 0.000978 -0.999999
1.69777930 -0.09679659 -1.50000000 0.000978 0.000978 -0.999999
1.18883812 -0.11982614 -1.50000000 0.000978 0.000978 -0.999999
1.76901305 0.11411382 -1.17605460 0.829973 0.048987 0.555648
0.91959035 0.08247658 0.10432696 0.830482 0.034661 0.555966
1.97217822 0.07506688 -1.47309136 0.830559 0.031891 0.556017
0.77213991 0.05480777 0.33096671 0.831185 0.023433 0.555502
1.59459794 0.35795456 -0.96258527 0.816383 0.150191 0.557639
1.39641881 0.63878703 -0.82172656 0.768336 0.315996 0.556602
1.52175808 0.59525961 -0.97172153 0.779225 0.287250 0.557043
1.19398499 0.39711165 -0.39884448 0.793784 0.244841 0.556740
1.48101389 0.78006780 -1.02177024 0.748816 0.358977 0.557145
1.61353350 0.75571924 -1.19290590 0.758163 0.337859 0.557710
0.77915192 0.26020202 0.26026762 0.795890 0.237371 0.556968
0.44789088 0.43738198 0.55955887 0.686172 0.469135 0.555950
1.22345185 0.96109545 -0.85369754 0.668783 0.491111 0.558157
1.32574868 1.07318199 -1.07971823 0.656822 0.505635 0.559391
1.24394453 0.82700449 -0.75479418 0.699893 0.447200 0.556922
1.67523563 1.01519454 -1.44579935 0.713331 0.428660 0.554445
0.55336404 0.86260092 -0.04503906 0.517423 0.648885 0.557873
0.38693058 0.64541316 0.36894000 0.528184 0.639558 0.558559
0.72645748 0.83994329 -0.17726600 0.562254 0.609530 0.558877
0.98525202 1.40226448 -1.09057462 0.491111 0.668783 0.558157
0.75997615 1.16581762 -0.59928381 0.494753 0.665820 0.558484
0.30536902 0.32722056 0.82598639 0.583935 0.590706 0.556854
0.73620349 1.78129053 -1.41609383 0.319665 0.766233 0.557406
0.57004571 1.64288723 -1.12643492 0.290875 0.777258 0.557909
0.39340803 1.29574049 -0.53893161 0.297939 0.775916 0.556046
0.50474501 0.95204353 -0.12298131 0.400103 0.729405 0.554875
0.56235445 1.48886395 -0.90669149 0.318880 0.767554 0.556036
0.35057345 1.76616180 -1.21847367 0.166838 0.813150 0.557631
0.38300923 1.46263719 -0.76959181 0.213677 0.803977 0.554944
0.02338003 1.32021523 -0.48493981 0.081637 0.826397 0.557138
0.18520007 1.31578875 -0.51025611 0.150191 0.816383 0.557639
0.34961742 1.92679858 -1.45923996 0.150191 0.816383 0.557639
0.45796621 1.73285854 -1.18972647 0.213677 0.803977 0.554944
-0.18631536 1.38207924 -0.60991216 -0.078605 0.827492 0.555949
-0.03139025 0.34341073 0.97868490 -0.015039 0.832587 0.553691
-0.02990745 1.25165343 -0.38338614 -0.015039 0.832587 0.553691
-0.13021696 1.70655704 -1.08555067 -0.054910 0.829276 0.556136
-0.11354756 0.50841248 0.71495795 -0.048987 0.829973 0.555648
-0.04749806 1.78448462 -1.18610668 -0.020630 0.832085 0.554265
-0.39658386 1.08085823 -0.24041271 -0.258231 0.790342 0.555587
-0.87651896 1.65496373 -1.32075655 -0.377983 0.741239 0.554702
-0.49899030 1.18003082 -0.43832529 -0.286541 0.780467 0.555667
-0.10711759 0.34430051 0.95672560 -0.223935 0.801534 0.554433
-0.88573766 1.62917769 -1.29005075 -0.384499 0.737911 0.554660
-0.34666324 0.49167049 0.59056425 -0.433393 0.709037 0.556270
-1.18863511 1.42685807 -1.30741453 -0.524606 0.642684 0.558342
-0.79102361 1.33171117 -0.82700104 -0.421229 0.718567 0.553379
-0.41977721 0.56684232 0.43299615 -0.443498 0.702620 0.556448
-0.64953715 0.72693640 0.02922142 -0.483809 0.674654 0.557468
-0.31873512 0.48668492 0.62227082 -0.425953 0.714341 0.555230
-1.41558504 1.02639043 -1.14445269 -0.662838 0.498387 0.558798
-1.45692849 1.02155900 -1.18962741 -0.671728 0.487463 0.557819
-0.94387972 0.66151822 -0.24221015 -0.642684 0.524606 0.558342
-1.32627726 1.14907360 -1.15025043 -0.622527 0.548296 0.558419
-1.56541646 1.02616644 -1.32408869 -0.690073 0.462834 0.556403
-0.73689699 0.21146399 0.34754884 -0.756473 0.345029 0.555611
-1.58752239 0.66094446 -1.10167563 -0.762527 0.330482 0.556177
-1.55588758 0.46365118 -0.94322854 -0.785521 0.272335 0.555689
-1.39692664 0.65660566 -0.83275306 -0.745528 0.367054 0.556291
-1.33750951 0.71520609 -0.78362966 -0.731897 0.396376 0.554268
-1.56950295 0.75458395 -1.13070369 -0.745528 0.367054 0.556291
-1.00977576 0.01619229 -0.01786113 -0.821308 0.115246 0.558723
-1.10790539 0.25885051 -0.21297550 -0.807873 0.200059 0.554363
-1.72144747 0.17921980 -1.11756325 -0.823836 0.102799 0.557429
-0.84144497 0.22485816 0.19342780 -0.803446 0.216608 0.554577
-1.07005882 0.21829382 -0.14819658 -0.808688 0.189655 0.556826
-1.25196004 0.30606109 -0.43838048 -0.806309 0.203490 0.555389
-0.34331775 -0.06510895 0.97216582 -0.831486 -0.029054 0.554785
-1.59152377 -0.05078531 -0.89731461 -0.832034 -0.023379 0.554231
-1.84100735 -0.44645444 -1.34967625 -0.809150 -0.186727 0.557144
-1.81855392 -0.10661491 -1.24888504 -0.830084 -0.046194 0.555722
-1.46291041 -0.32402816 -0.75835437 -0.819370 -0.137300 0.556581
-1.41510391 -0.16563219 -0.65536469 -0.828497 -0.069634 0.555647
-1.71900856 -0.84226274 -1.39044356 -0.748816 -0.358977 0.557145
-0.99539679 -0.53572023 -0.20151377 -0.767554 -0.318880 0.556036
-0.80339813 -0.46214956 0.10945344 -0.769811 -0.308885 0.558553
-1.32829440 -0.58431506 -0.69496584 -0.773901 -0.301582 0.556889
-1.50255120 -0.65474111 -0.97931331 -0.769047 -0.311776 0.557999
-1.44924188 -0.40518519 -0.76031119 -0.801534 -0.223935 0.554433
-1.06173944 -0.91030389 -0.61281413 -0.659839 -0.502015 0.559100
-1.45166051 -1.36152506 -1.49642038 -0.606243 -0.565715 0.558960
-1.05406797 -0.88984156 -0.58475971 -0.662838 -0.498387 0.558798
-1.50583827 -1.09540176 -1.31634450 -0.674654 -0.483809 0.557468
-0.71688527 -0.50377876 0.17553234 -0.703654 -0.440823 0.557267
-0.72325736 -0.98234868 -0.34524751 -0.528184 -0.639558 0.558559
-0.86516011 -1.40807080 -0.98693687 -0.462834 -0.690073 0.556403
-0.76481193 -0.79982132 -0.16443288 -0.580530 -0.594070 0.556835
-1.06557655 -1.33783925 -1.08722579 -0.527044 -0.641546 0.557354
-1.20988083 -1.29495549 -1.16865993 -0.569163 -0.602942 0.559030
-0.27225602 -0.48668003 0.66209912 -0.411053 -0.724708 0.553023
-0.55886734 -1.80116749 -1.34120345 -0.255306 -0.790978 0.556034
-0.63143748 -1.30481493 -0.68942946 -0.374490 -0.740803 0.557646
-0.20365131 -0.51363683 0.66414022 -0.385429 -0.736415 0.556001
-0.57278061 -1.18735492 -0.49128544 -0.377983 -0.741239 0.554702
-0.14755198 -1.04831171 -0.10160577 -0.163514 -0.814567 0.556546
-0.43439630 -1.73124433 -1.18265057 -0.203490 -0.806309 0.555389
-0.18286830 -1.32212329 -0.51929760 -0.147282 -0.816745 0.557886
-0.42993894 -1.64970016 -1.05945408 -0.213149 -0.805060 0.553575
-0.43435541 -1.72805274 -1.17785501 -0.206420 -0.805804 0.555041
0.09122983 -1.28373337 -0.44361603 0.040354 -0.830730 0.555211
0.17359905 -1.59138525 -0.92136002 0.072632 -0.827435 0.556845
0.06639589 -0.72019756 0.40659189 0.029054 -0.831486 0.554785
0.24555919 -0.93251061 0.05274129 0.103044 -0.822902 0.558761
0.01839150 -0.56763661 0.64491320 0.009534 -0.832222 0.554361
0.57748049 -1.02160168 -0.26232052 0.330482 -0.762527 0.556177
0.46437073 -1.00665784 -0.17594421 0.290158 -0.778511 0.556533
0.58414400 -1.34261024 -0.71487713 0.301582 -0.773901 0.556889
0.57068300 -1.27318108 -0.61003685 0.304479 -0.773153 0.556351
0.62743831 -1.42965400 -0.86161125 0.308125 -0.771110 0.557179
0.37519294 -1.34930301 -0.60325396 0.220452 -0.803184 0.553441
0.59216154 -0.81220144 -0.02027798 0.450899 -0.697146 0.557384
0.70294595 -1.02282441 -0.37512326 0.447200 -0.699893 0.556922
0.62884748 -0.85714149 -0.10800815 0.455439 -0.695670 0.555535
1.05470252 -1.46235287 -1.22666407 0.477568 -0.678649 0.558000
0.51044244 -0.55559325 0.36299348 0.472811 -0.683321 0.556347
0.59597379 -0.50594717 0.31866527 0.606243 -0.565715 0.558960
1.34776402 -1.28112996 -1.29766774 0.600758 -0.573681 0.556759
1.08805668 -1.04385471 -0.76740575 0.597421 -0.577112 0.556803
0.82395697 -0.60164189 -0.04311967 0.632110 -0.537715 0.557942
1.23205876 -0.93625998 -0.84115434 0.645793 -0.521019 0.558114
0.91340679 -0.89382607 -0.41959417 0.590706 -0.583935 0.556854
1.02990794 -0.51884127 -0.23997998 0.733032 -0.391934 0.555924
1.38367724 -0.48382449 -0.71419680 0.769047 -0.311776 0.557999
0.95278668 -0.50606847 -0.12478638 0.729405 -0.400103 0.554875
0.98899353 -0.41687158 -0.12375247 0.746972 -0.366163 0.554940
0.90951145 -0.33194101 0.03651857 0.751969 -0.352435 0.557074
1.15467811 -0.60595167 -0.46481586 0.731897 -0.396376 0.554268
1.54688179 -0.26328585 -0.87231600 0.815997 -0.156636 0.556430
0.46143329 -0.10655314 0.78680801 0.804214 -0.209861 0.556056
1.71909404 -0.45089683 -1.16768360 0.803977 -0.213677 0.554944
1.42817926 -0.21220902 -0.68417555 0.816745 -0.147282 0.557886
1.22008944 -0.14383593 -0.35853863 0.818085 -0.144019 0.556773
