//X Y Z Nx Ny Nz
203
1.22941637 0.11765838 -1.50000000 0.000978 0.000978 -0.999999
1.58013582 0.08888852 -1.50000000 0.000978 0.000978 -0.999999
1.76614201 0.41192263 -1.50000000 0.000978 0.000978 -0.999999
1.31118178 0.38211796 -1.50000000 0.000978 0.000978 -0.999999
1.67159820 0.77873719 -1.50000000 0.000978 0.000978 -0.999999
0.71108550 0.30487144 -1.50000000 0.000978 0.000978 -0.999999
0.24594438 0.23453407 -1.50000000 0.000978 0.000978 -0.999999
1.43969393 1.01360011 -1.50000000 0.000978 0.000978 -0.999999
1.01024771 0.85599083 -1.50000000 0.000978 0.000978 -0.999999
1.10275578 1.61064017 -1.50000000 0.000978 0.000978 -0.999999
1.01530457 1.09792566 -1.50000000 0.000978 0.000978 -0.999999
0.52137089 0.83721083 -1.50000000 0.000978 0.000978 -0.999999
0.32031798 1.06885982 -1.50000000 0.000978 0.000978 -0.999999
0.70610178 1.25812018 -1.50000000 0.000978 0.000978 -0.999999
0.91184676 1.62727904 -1.50000000 0.000978 0.000978 -0.999999
0.37455770 1.80338216 -1.50000000 0.000978 0.000978 -0.999999
0.35926771 1.61462474 -1.50000000 0.000978 0.000978 -0.999999
-0.07135949 1.08215046 -1.50000000 0.000978 0.000978 -0.999999
-0.18788844 1.50581264 -1.50000000 0.000978 0.000978 -0.999999
-0.12929958 1.66851628 -1.50000000 0.000978 0.000978 -0.999999
-0.68057060 1.49717021 -1.50000000 0.000978 0.000978 -0.999999
-0.88860899 1.76926792 -1.50000000 0.000978 0.000978 -0.999999
-0.56416517 1.37093997 -1.50000000 0.000978 0.000978 -0.999999
-0.66686094 1.09061885 -1.50000000 0.000978 0.000978 -0.999999
-0.60187042 0.87913018 -1.50000000 0.000978 0.000978 -0.999999
-0.78605539 1.20818639 -1.50000000 0.000978 0.000978 -0.999999
-1.01875412 0.95966315 -1.50000000 0.000978 0.000978 -0.999999
-1.30058384 1.27053428 -1.50000000 0.000978 0.000978 -0.999999
-1.16079783 1.12783301 -1.50000000 0.000978 0.000978 -0.999999
-1.79953384 0.64347482 -1.50000000 0.000978 0.000978 -0.999999
-0.52859402 0.19811147 -1.50000000 0.000978 0.000978 -0.999999
-1.50270820 0.66533065 -1.50000000 0.000978 0.000978 -0.999999
-1.65839481 0.26453424 -1.50000000 0.000978 0.000978 -0.999999
-1.86679435 0.20172836 -1.50000000 0.000978 0.000978 -0.999999
-1.07302189 0.06867915 -1.50000000 0.000978 0.000978 -0.999999
-1.26317167 -0.14856181 -1.50000000 0.000978 0.000978 -0.999999
-1.91575086 -0.03377579 -1.50000000 0.000978 0.000978 -0.999999
-1.54801774 -0.23012167 -1.50000000 0.000978 0.000978 -0.999999
-1.81368375 -0.71204674 -1.50000000 0.000978 0.000978 -0.999999
-1.10509109 -0.52401978 -1.50000000 0.000978 0.000978 -0.999999
-1.11023879 -0.57959718 -1.50000000 0.000978 0.000978 -0.999999
-1.02620828 -0.70716989 -1.50000000 0.000978 0.000978 -0.999999
-1.23995912 -0.94190836 -1.50000000 0.000978 0.000978 -0.999999
-1.26384115 -0.74575329 -1.50000000 0.000978 0.000978 -0.999999
-0.97531617 -1.62663209 -1.50000000 0.000978 0.000978 -0.999999
-0.82769269 -0.99691075 -1.50000000 0.000978 0.000978 -0.999999
-0.92039931 -1.44569802 -1.50000000 0.000978 0.000978 -0.999999
-0.77662981 -1.53437197 -1.50000000 0.000978 0.000978 -0.999999
-0.61892319 -1.21295583 -1.50000000 0.000978 0.000978 -0.999999
-0.73514330 -1.50796449 -1.50000000 0.000978 0.000978 -0.999999
-0.37999046 -1.43664074 -1.50000000 0.000978 0.000978 -0.999999
-0.35684925 -1.33295202 -1.50000000 0.000978 0.000978 -0.999999
-0.43412468 -1.74026644 -1.50000000 0.000978 0.000978 -0.999999
0.05072545 -0.96285582 -1.50000000 0.000978 0.000978 -0.999999
0.19266070 -1.05201888 -1.50000000 0.000978 0.000978 -0.999999
0.07458027 -0.51576245 -1.50000000 0.000978 0.000978 -0.999999
0.49516195 -0.99970895 -1.50000000 0.000978 0.000978 -0.999999
0.43541047 -1.10179019 -1.50000000 0.000978 0.000978 -0.999999
0.21219678 -0.50181180 -1.50000000 0.000978 0.000978 -0.999999
0.59273285 -0.73983324 -1.50000000 0.000978 0.000978 -0.999999
0.61591053 -0.70016098 -1.50000000 0.000978 0.000978 -0.999999
0.89394987 -1.01692247 -1.50000000 0.000978 0.000978 -0.999999
1.04127753 -1.00478661 -1.50000000 0.000978 0.000978 -0.999999
0.93859911 -0.62527066 -1.50000000 0.000978 0.000978 -0.999999
0.51952732 -0.43012279 -1.50000000 0.000978 0.000978 -0.999999
1.83713293 -0.55559462 -1.50000000 0.000978 0.000978 -0.999999
1.39318800 -0.50311768 -1.50000000 0.000978 0.000978 -0.999999
1.17550874 -0.59144533 -1.50000000 0.000978 0.000978 -0.999999
1.82107127 -0.08431628 -1.50000000 0.000978 0.000978 -0.999999
0.96328318 -0.06340127 -1.50000000 0.000978 0.000978 -0.999999
1.64022160 -0.17853479 -1.50000000 0.000978 0.000978 -0.999999
1.28691292 0.29202998 -0.48803926 0.819875 0.124668 0.558805
1.51988924 0.10685050 -0.80093461 0.830084 0.046194 0.555722
1.65038824 0.26768693 -1.02844489 0.821581 0.112365 0.558909
1.07855046 0.05174845 -0.12804484 0.832034 0.023379 0.554231
1.78808737 0.07559577 -1.19705975 0.830559 0.031891 0.556017
0.57780755 0.07585908 0.61830807 0.830559 0.031891 0.556017
1.16038418 0.65023583 -0.49843144 0.755111 0.344408 0.557844
1.35082471 0.68021011 -0.78197938 0.759532 0.337032 0.556345
0.66472948 0.25628379 0.42247331 0.793784 0.244841 0.556740
1.63923633 0.93644482 -1.33346903 0.729405 0.400103 0.554875
1.85218453 0.60213816 -1.43756688 0.790978 0.255306 0.556034
1.91352642 0.51837736 -1.47481346 0.801813 0.220075 0.555575
0.50986338 0.43229103 0.48986220 0.695670 0.455439 0.555535
0.62576473 0.38729054 0.39219236 0.716963 0.422230 0.554694
0.87264788 0.64573097 -0.14217031 0.692881 0.459138 0.555975
0.38126385 0.36134064 0.70956707 0.692881 0.459138 0.555975
0.65031791 0.40075189 0.35032320 0.716963 0.422230 0.554694
1.13095880 1.26545715 -1.06056416 0.558781 0.612802 0.558781
0.02611542 0.03157187 1.43805122 0.587327 0.587327 0.556861
0.24096096 0.37125564 0.83245230 0.558781 0.612802 0.558781
0.77563465 0.78251445 -0.15362740 0.586160 0.589538 0.555754
0.69171548 1.09845424 -0.45555806 0.494753 0.665820 0.558484
1.07154393 1.46150815 -1.24116147 0.498387 0.662838 0.558798
0.54149365 1.70386457 -1.19513655 0.269416 0.786191 0.556163
0.82642305 1.50074589 -1.07618976 0.402863 0.728442 0.554142
0.36773574 1.24429798 -0.45216274 0.301582 0.773901 0.556889
0.25969249 0.85330409 0.15691447 0.340719 0.757332 0.557099
0.25575566 0.94731778 0.02778363 0.319665 0.766233 0.557406
0.33363038 0.78818530 0.20512748 0.377296 0.739893 0.556961
0.24882701 1.77809203 -1.21627593 0.124872 0.821218 0.556783
0.29582804 1.45441556 -0.74004316 0.179667 0.810765 0.557118
0.00321308 1.00469851 -0.00768232 0.109220 0.822791 0.557751
0.11934003 1.40479636 -0.63076174 0.112096 0.822526 0.557571
0.09743381 0.81077206 0.26460063 0.169759 0.812738 0.557349
0.33918458 1.59172106 -0.95456338 0.182893 0.811683 0.554726
-0.05447582 0.77591825 0.32536483 -0.023433 0.831185 0.555502
-0.00096526 0.06471980 1.40272975 -0.001354 0.832674 0.553762
-0.04199447 0.59518158 0.59893465 -0.017813 0.831707 0.554928
-0.04574316 0.29894924 1.04254293 -0.020630 0.832085 0.554265
-0.07227714 0.43775403 0.82909560 -0.031818 0.831416 0.554739
-0.27308902 0.75145864 0.29151535 -0.244236 0.794933 0.555364
-0.86431479 1.68468893 -1.35523975 -0.370771 0.743175 0.556973
-0.20744780 0.55232143 0.60786963 -0.237781 0.797266 0.554822
-0.60154647 1.43625534 -0.85584778 -0.297939 0.775916 0.556046
-0.50982702 1.63634717 -1.08242798 -0.244236 0.794933 0.555364
-0.33286816 1.05597746 -0.16874504 -0.233861 0.797605 0.556000
-1.18628407 1.19533849 -1.02735662 -0.558781 0.612802 0.558781
-0.25555032 0.41137660 0.77085781 -0.421229 0.718567 0.553379
-0.52025694 0.70743072 0.17170393 -0.447200 0.699893 0.556922
-0.58790880 0.74086565 0.06926322 -0.462834 0.690073 0.556403
-0.37455034 0.38145828 0.69716716 -0.462834 0.690073 0.556403
-1.19590294 0.97626781 -0.83460456 -0.630079 0.538861 0.559132
-1.22880900 0.76621509 -0.68063843 -0.675746 0.481238 0.558370
-0.74209929 0.54532766 0.10700059 -0.626887 0.542401 0.559298
-1.25604343 0.98433667 -0.91422254 -0.641546 0.527044 0.557354
-1.30628943 1.00295699 -0.99168265 -0.647753 0.519885 0.556899
-1.46547961 0.87642366 -1.06621850 -0.697146 0.450899 0.557384
-0.49349630 0.13509011 0.73198771 -0.745528 0.367054 0.556291
-1.58214819 0.82501328 -1.18915594 -0.736415 0.385429 0.556001
-1.54501247 0.65915978 -1.04122293 -0.757332 0.340719 0.557099
-1.31217670 0.39873841 -0.56499195 -0.774540 0.297411 0.558242
-0.51961553 0.27104759 0.61676264 -0.725923 0.406583 0.554730
-1.17220807 0.25527275 -0.30872321 -0.808532 0.193378 0.555771
-1.55751419 0.32528839 -0.90050882 -0.810765 0.179667 0.557118
-0.43326616 0.09866679 0.83061624 -0.804214 0.209861 0.556056
-1.28174651 0.16199093 -0.45460939 -0.818085 0.144019 0.556773
-1.61859202 0.28686970 -0.98453873 -0.814997 0.157018 0.557787
-0.68720484 -0.13065670 0.44339085 -0.829276 -0.054910 0.556136
-1.54794765 -0.30462053 -0.88207746 -0.819952 -0.128072 0.557921
-1.15163672 -0.13516459 -0.25414717 -0.829144 -0.057716 0.556047
-0.18459678 -0.02034744 1.21908665 -0.832222 -0.009534 0.554361
-1.47133660 -0.27171102 -0.76066214 -0.822647 -0.115434 0.556711
-1.66891420 -0.17038213 -1.03701830 -0.827435 -0.072632 0.556845
-0.97239655 -0.37661296 -0.07724476 -0.788518 -0.261794 0.556509
-0.25501943 -0.08331594 1.09530163 -0.801534 -0.223935 0.554433
-0.54499626 -0.17715469 0.63564777 -0.799866 -0.227428 0.555420
-1.68029594 -0.68453360 -1.24501002 -0.771866 -0.305231 0.557725
-0.99014461 -0.49445158 -0.17027879 -0.773901 -0.301582 0.556889
-0.24953806 -0.09669599 1.09521627 -0.799866 -0.227428 0.555420
-0.69800848 -0.49568105 0.20564842 -0.702620 -0.443498 0.556448
-1.52151048 -1.11983669 -1.35766113 -0.671728 -0.487463 0.557819
-1.29834318 -1.06191039 -1.03644216 -0.653787 -0.509248 0.559669
-1.30841184 -1.04498470 -1.03293860 -0.659839 -0.502015 0.559100
-1.23147368 -1.01242661 -0.91060323 -0.656822 -0.505635 0.559391
-1.22727346 -0.72277462 -0.63878578 -0.719565 -0.418506 0.554148
-0.94553500 -0.95979786 -0.52290225 -0.583935 -0.590706 0.556854
-0.26572907 -0.38386476 0.79450536 -0.562254 -0.609530 0.558877
-0.69395167 -0.78148097 -0.07715499 -0.569163 -0.602942 0.559030
-0.91758466 -1.50214338 -1.14813614 -0.450899 -0.697146 0.557384
-0.09185755 -0.09611607 1.30002928 -0.587327 -0.587327 0.556861
-0.39307320 -0.39910376 0.65892744 -0.586160 -0.589538 0.555754
-0.14998680 -0.45954204 0.77082348 -0.377983 -0.741239 0.554702
-0.82856101 -1.72292495 -1.38798463 -0.362681 -0.746505 0.557846
-0.18373650 -0.56517589 0.60363054 -0.369872 -0.744633 0.555623
-0.38568413 -0.99046057 -0.10774624 -0.355275 -0.751106 0.556435
-0.63845217 -1.43132937 -0.87032992 -0.355275 -0.751106 0.556435
-0.13504139 -0.53533697 0.67032671 -0.213677 -0.803977 0.554944
-0.14885482 -0.56315100 0.62587786 -0.216608 -0.803446 0.554577
-0.32947484 -1.50354147 -0.82037634 -0.186727 -0.809150 0.557144
-0.02201581 -0.66559505 0.49725986 -0.153723 -0.816375 0.556687
-0.19931468 -0.89709318 0.11499977 -0.200059 -0.807873 0.554363
0.16022658 -1.51640129 -0.80624330 0.069524 -0.827188 0.557607
0.48369497 -1.83225405 -1.34390068 0.203490 -0.806309 0.555389
0.22562870 -1.51201773 -0.81258357 0.096676 -0.823911 0.558412
0.27538002 -1.95118833 -1.48116434 0.115434 -0.822647 0.556711
0.18139252 -1.57399547 -0.89681447 0.078480 -0.826176 0.557919
0.41610068 -1.01538670 -0.16019797 0.272335 -0.785521 0.555689
0.55244690 -0.96339893 -0.16647208 0.326215 -0.763312 0.557619
0.32608134 -0.76175940 0.24643588 0.261794 -0.788518 0.556509
0.53175652 -1.44535542 -0.82816070 0.272335 -0.785521 0.555689
0.24589226 -0.62870860 0.47883904 0.244841 -0.793784 0.556740
0.43386632 -1.39103675 -0.69555914 0.240710 -0.796673 0.554410
0.44699794 -0.69317651 0.25628638 0.428660 -0.713331 0.554445
1.08084953 -1.45366681 -1.24032021 0.487463 -0.671728 0.557819
1.14674437 -1.16876173 -0.95903963 0.552956 -0.617214 0.559720
1.13096511 -1.54739261 -1.39897692 0.484903 -0.672824 0.558729
0.59120762 -0.79769588 -0.00198841 0.455439 -0.695670 0.555535
1.18672383 -0.78937268 -0.65145242 0.663946 -0.495859 0.559732
1.58328259 -1.01354778 -1.33391154 0.695670 -0.455439 0.555535
1.00053418 -0.72139639 -0.36536169 0.642684 -0.524606 0.558342
0.95969313 -0.61010575 -0.21383905 0.653787 -0.509248 0.559669
0.54081386 -0.52603406 0.36637294 0.590706 -0.583935 0.556854
1.34965003 -0.40776828 -0.62259954 0.776536 -0.293781 0.557391
1.55115414 -0.50651640 -0.96143025 0.779225 -0.287250 0.557043
0.74427843 -0.22269338 0.33072972 0.754231 -0.348731 0.556347
1.70674634 -0.66670954 -1.27166200 0.769047 -0.311776 0.557999
0.89147753 -0.29415298 0.08360445 0.755111 -0.344408 0.557844
0.40458882 -0.03640637 0.88592744 0.809150 -0.186727 0.557144
0.72042322 -0.06469926 0.40658832 0.814164 -0.166431 0.556271
1.72183800 -0.30322972 -1.14263844 0.816375 -0.153723 0.556687
0.07747853 -0.00902715 1.38199949 0.805060 -0.213149 0.553575
0.57397807 -0.08805847 0.62164330 0.810054 -0.189975 0.554727
