//X Y Z Nx Ny Nz
201
0.94752204 0.10745269 -1.50000000 0.000978 0.000978 -0.999999
1.54532254 0.36674419 -1.50000000 0.000978 0.000978 -0.999999
0.94275004 0.05296939 -1.50000000 0.000978 0.000978 -0.999999
1.41734052 0.46974719 -1.50000000 0.000978 0.000978 -0.999999
1.51570058 0.68993807 -1.50000000 0.000978 0.000978 -0.999999
1.09873652 0.41445094 -1.50000000 0.000978 0.000978 -0.999999
0.86129552 0.80464119 -1.50000000 0.000978 0.000978 -0.999999
0.51453137 0.41427189 -1.50000000 0.000978 0.000978 -0.999999
1.43480921 0.88759589 -1.50000000 0.000978 0.000978 -0.999999
1.05033183 1.25324106 -1.50000000 0.000978 0.000978 -0.999999
0.96641165 1.32705963 -1.50000000 0.000978 0.000978 -0.999999
0.66091532 1.09357297 -1.50000000 0.000978 0.000978 -0.999999
0.22352636 0.59844309 -1.50000000 0.000978 0.000978 -0.999999
0.25828597 0.87584758 -1.50000000 0.000978 0.000978 -0.999999
0.67321241 1.81864691 -1.50000000 0.000978 0.000978 -0.999999
0.04677541 0.58334523 -1.50000000 0.000978 0.000978 -0.999999
0.14199153 1.65563297 -1.50000000 0.000978 0.000978 -0.999999
0.25957614 1.10494578 -1.50000000 0.000978 0.000978 -0.999999
-0.18092586 1.07352245 -1.50000000 0.000978 0.000978 -0.999999
-0.16053613 1.87659323 -1.50000000 0.000978 0.000978 -0.999999
-0.19197036 1.08546269 -1.50000000 0.000978 0.000978 -0.999999
-0.64619339 1.41890359 -1.50000000 0.000978 0.000978 -0.999999
-0.46947753 1.14251971 -1.50000000 0.000978 0.000978 -0.999999
-0.73822790 1.76055503 -1.50000000 0.000978 0.000978 -0.999999
-0.90874875 1.14415359 -1.50000000 0.000978 0.000978 -0.999999
-1.27171481 1.40859807 -1.50000000 0.000978 0.000978 -0.999999
-0.65255582 0.88219512 -1.50000000 0.000978 0.000978 -0.999999
-0.84206611 0.51267135 -1.50000000 0.000978 0.000978 -0.999999
-1.40363097 1.32311904 -1.50000000 0.000978 0.000978 -0.999999
-0.78902310 0.51442772 -1.50000000 0.000978 0.000978 -0.999999
-0.78283292 0.43237245 -1.50000000 0.000978 0.000978 -0.999999
-1.31948841 0.70577991 -1.50000000 0.000978 0.000978 -0.999999
-1.75829530 0.90905392 -1.50000000 0.000978 0.000978 -0.999999
-1.85939264 0.03491297 -1.50000000 0.000978 0.000978 -0.999999
-0.37340623 0.03826557 -1.50000000 0.000978 0.000978 -0.999999
-1.17676950 0.20643689 -1.50000000 0.000978 0.000978 -0.999999
-0.67665303 -0.03977868 -1.50000000 0.000978 0.000978 -0.999999
-1.95033145 -0.09569994 -1.50000000 0.000978 0.000978 -0.999999
-1.91860831 -0.01715551 -1.50000000 0.000978 0.000978 -0.999999
-1.38800955 -0.65973938 -1.50000000 0.000978 0.000978 -0.999999
-1.50569439 -0.82079643 -1.50000000 0.000978 0.000978 -0.999999
-1.75442004 -0.85202539 -1.50000000 0.000978 0.000978 -0.999999
-1.48913145 -1.10659504 -1.50000000 0.000978 0.000978 -0.999999
-0.99834579 -0.73959625 -1.50000000 0.000978 0.000978 -0.999999
-1.33202362 -0.89274049 -1.50000000 0.000978 0.000978 -0.999999
-0.58338773 -0.96543813 -1.50000000 0.000978 0.000978 -0.999999
-1.28436637 -1.40938020 -1.50000000 0.000978 0.000978 -0.999999
-1.00254345 -1.71427262 -1.50000000 0.000978 0.000978 -0.999999
-0.23612487 -0.46408427 -1.50000000 0.000978 0.000978 -0.999999
-0.75734860 -1.64534831 -1.50000000 0.000978 0.000978 -0.999999
-0.63857305 -1.70791638 -1.50000000 0.000978 0.000978 -0.999999
-0.11809097 -0.44602710 -1.50000000 0.000978 0.000978 -0.999999
-0.11056111 -1.54746902 -1.50000000 0.000978 0.000978 -0.999999
-0.01148871 -1.38335097 -1.50000000 0.000978 0.000978 -0.999999
0.44273555 -1.68130493 -1.50000000 0.000978 0.000978 -0.999999
0.45251292 -1.73550105 -1.50000000 0.000978 0.000978 -0.999999
0.46870264 -1.82411385 -1.50000000 0.000978 0.000978 -0.999999
0.10106059 -0.36478314 -1.50000000 0.000978 0.000978 -0.999999
0.74277419 -1.74240088 -1.50000000 0.000978 0.000978 -0.999999
0.44555238 -1.66209531 -1.50000000 0.000978 0.000978 -0.999999
1.06908393 -1.22043931 -1.50000000 0.000978 0.000978 -0.999999
0.87457001 -1.25049913 -1.50000000 0.000978 0.000978 -0.999999
0.72154224 -0.74188417 -1.50000000 0.000978 0.000978 -0.999999
1.48811007 -1.09253764 -1.50000000 0.000978 0.000978 -0.999999
1.11870337 -0.67254233 -1.50000000 0.000978 0.000978 -0.999999
0.73874593 -0.65727943 -1.50000000 0.000978 0.000978 -0.999999
1.52645338 -0.71177173 -1.50000000 0.000978 0.000978 -0.999999
1.39587820 -0.76268107 -1.50000000 0.000978 0.000978 -0.999999
1.24868906 -0.43881080 -1.50000000 0.000978 0.000978 -0.999999
0.80022913 -0.15047379 -1.50000000 0.000978 0.000978 -0.999999
0.99816465 -0.14844616 -1.50000000 0.000978 0.000978 -0.999999
1.23292875 -0.22665252 -1.50000000 0.000978 0.000978 -0.999999
1.78595901 0.21454163 -1.22130585 0.825279 0.090738 0.557388
1.00546312 0.00024513 -0.00824308 0.832674 0.001354 0.553762
1.63060081 0.22126238 -0.98959583 0.825060 0.093593 0.557240
1.29647350 0.02854815 -0.45034802 0.832618 0.012305 0.553711
1.13359213 0.24071532 -0.24792433 0.823836 0.102799 0.557429
1.02855623 0.46385580 -0.20625532 0.779225 0.287250 0.557043
0.54809940 0.30081657 0.55971265 0.783632 0.275927 0.556584
0.17839110 0.07798359 1.20549822 0.799866 0.227428 0.555420
0.86611903 0.44133160 0.03383696 0.775270 0.294507 0.558768
1.66372478 0.54609334 -1.14169323 0.790978 0.255306 0.556034
0.71945405 0.39596853 0.26510620 0.776536 0.293781 0.557391
1.51323831 1.19281662 -1.41494799 0.653787 0.509248 0.559669
1.34178674 1.25851059 -1.26966035 0.616059 0.555297 0.558673
0.63226175 0.53594708 0.24747813 0.687246 0.466525 0.556820
1.44144106 0.99494857 -1.14652896 0.690073 0.462834 0.556403
0.58355939 0.38177830 0.44792843 0.713331 0.428660 0.554445
0.30144513 0.47709239 0.64970922 0.548296 0.622527 0.558419
0.58977330 0.73452115 0.07516122 0.555297 0.616059 0.558673
0.53452224 0.90349919 -0.07677543 0.502015 0.659839 0.559100
0.63632429 0.82695317 -0.07865930 0.544779 0.625737 0.558272
0.49000061 0.62502384 0.29848361 0.556453 0.613958 0.559835
0.96286440 1.53520453 -1.22952294 0.455439 0.695670 0.555535
0.43238580 1.31099069 -0.58281529 0.308125 0.771110 0.557179
0.17144507 0.37873352 0.87135196 0.400103 0.729405 0.554875
0.23817933 0.75012612 0.31358993 0.352435 0.751969 0.557074
0.31003949 1.14113021 -0.27455211 0.301582 0.773901 0.556889
0.89864165 1.72370160 -1.42964530 0.384499 0.737911 0.554660
0.24066378 1.18333292 -0.32252526 0.186269 0.810194 0.555778
0.45461497 1.89043963 -1.42543626 0.196307 0.808053 0.555441
0.02420390 1.27260935 -0.41369367 0.087671 0.826406 0.556207
0.13825792 0.79222882 0.28435385 0.186727 0.809150 0.557144
0.10864544 0.87985623 0.15876055 0.166431 0.814164 0.556271
0.05406854 0.64662731 0.51938176 0.169759 0.812738 0.557349
-0.20607080 0.87505507 0.14672279 -0.087531 0.825085 0.558188
-0.10127538 1.81146324 -1.23719466 -0.043232 0.829767 0.556432
-0.27398553 1.03980207 -0.11380935 -0.115434 0.822647 0.556711
-0.27251753 1.44398761 -0.71979779 -0.115434 0.822647 0.556711
-0.19624574 1.44460213 -0.70565754 -0.084482 0.826201 0.557005
-0.46209675 1.03417897 -0.21309626 -0.287250 0.779225 0.557043
-0.57375163 1.28659797 -0.63056743 -0.301582 0.773901 0.556889
-0.71751863 1.33138394 -0.77640623 -0.352435 0.751969 0.557074
-0.53911942 1.42718029 -0.80701888 -0.275927 0.783632 0.556584
-0.41201159 0.85235631 0.07004964 -0.287250 0.779225 0.557043
-1.09519362 1.51083267 -1.32214749 -0.481238 0.675746 0.558370
-0.74415028 1.02443254 -0.41500354 -0.461767 0.691818 0.555121
-1.07482719 1.66155720 -1.48430407 -0.450899 0.697146 0.557384
-1.28706217 1.32741439 -1.27870584 -0.565715 0.606243 0.558960
-1.24344540 1.43578506 -1.36861098 -0.537715 0.632110 0.557942
-1.48973954 1.15517759 -1.35207593 -0.651856 0.510368 0.560899
-1.06929529 0.80963051 -0.52916098 -0.639558 0.528184 0.558559
-1.20011163 1.00981045 -0.87054962 -0.625737 0.544779 0.558272
-1.36358523 1.20108342 -1.24293339 -0.619301 0.551802 0.558552
-0.79759765 0.49966383 0.08244348 -0.645793 0.521019 0.558114
-0.85722268 0.56434190 -0.04869437 -0.645793 0.521019 0.558114
-1.79053390 0.66034019 -1.38509071 -0.776536 0.293781 0.557391
-1.06805682 0.35648173 -0.19930100 -0.762527 0.330482 0.556177
-1.50683844 0.70474613 -1.01425755 -0.747860 0.363339 0.555599
-1.27402115 0.69493306 -0.68314934 -0.728442 0.402863 0.554142
-0.57954025 0.24853301 0.54603648 -0.735482 0.388216 0.555297
-1.69622433 0.40350282 -1.12401962 -0.808053 0.196307 0.555441
-1.29141760 0.08353770 -0.45362341 -0.822791 0.109220 0.557751
-1.38666821 0.00370583 -0.58073419 -0.827348 0.066699 0.557715
-1.91132569 0.17047454 -1.40065372 -0.826176 0.078480 0.557919
-0.40548742 0.01805037 0.88820410 -0.810765 0.179667 0.557118
-0.78550661 0.03008735 0.31579852 -0.818085 0.144019 0.556773
-1.25581443 -0.23948057 -0.43101406 -0.823836 -0.102799 0.557429
-1.20214009 -0.19155250 -0.34103775 -0.826397 -0.081637 0.557138
-0.87141752 -0.11427192 0.17030740 -0.829973 -0.048987 0.555648
-1.37347305 -0.19177899 -0.59808183 -0.826397 -0.081637 0.557138
-1.30158830 -0.33473951 -0.51848638 -0.818059 -0.140535 0.557700
-0.82378542 -0.22710988 0.21703959 -0.801813 -0.220075 0.555575
-1.72333586 -0.97071981 -1.47086596 -0.725923 -0.406583 0.554730
-0.96066773 -0.40622491 -0.07799518 -0.784311 -0.273010 0.557066
-0.91017324 -0.37199575 0.01240289 -0.786676 -0.265366 0.557425
-1.68540525 -0.49632335 -1.14318204 -0.797605 -0.233861 0.556000
-0.94354033 -0.60344160 -0.18831289 -0.710683 -0.432373 0.554962
-1.28084230 -1.15982163 -1.10561419 -0.630079 -0.538861 0.559132
-0.97724164 -0.73806155 -0.35275245 -0.687246 -0.466525 0.556820
-1.60646987 -1.00653577 -1.35528493 -0.705327 -0.439792 0.555964
-0.44132555 -0.32264555 0.67311382 -0.708015 -0.436084 0.555468
-1.11836278 -0.67777258 -0.46661258 -0.715959 -0.424946 0.553917
-0.67739272 -1.11881876 -0.46680999 -0.484903 -0.672824 0.558729
-0.46564507 -0.66581565 0.27195311 -0.542401 -0.626887 0.559298
-0.85827893 -1.20675945 -0.73896521 -0.509248 -0.653787 0.559669
-1.20662069 -1.41393471 -1.30846798 -0.541252 -0.628932 0.558114
-0.64134783 -0.72262806 0.04193521 -0.570238 -0.604080 0.556701
-0.49543577 -1.83391225 -1.35024786 -0.227428 -0.799866 0.555420
-0.44247991 -1.48448706 -0.83116871 -0.279525 -0.781723 0.557471
-0.43052548 -1.45090616 -0.77730882 -0.279525 -0.781723 0.557471
-0.58799046 -1.04114091 -0.29571712 -0.411053 -0.724708 0.553023
-0.21050018 -0.37249029 0.85746646 -0.413791 -0.723722 0.552271
-0.27328324 -1.85853040 -1.34176326 -0.124872 -0.821218 0.556783
-0.08387241 -1.75239480 -1.14515519 -0.060663 -0.828123 0.557255
-0.13025129 -0.49845600 0.72659421 -0.216608 -0.803446 0.554577
-0.44300729 -1.91657984 -1.46235406 -0.189655 -0.808688 0.556826
-0.17880975 -1.94328976 -1.45024574 -0.078480 -0.826176 0.557919
0.43892509 -1.67512381 -1.09936416 0.183343 -0.810648 0.556089
0.34191760 -1.65661275 -1.05244064 0.144019 -0.818085 0.556773
0.19835855 -1.82432592 -1.27566063 0.084482 -0.826201 0.557005
0.22720793 -1.18200350 -0.31787395 0.096676 -0.823911 0.558412
0.10756802 -1.26410902 -0.41740584 0.046194 -0.830084 0.555722
0.72972453 -1.59846056 -1.15678692 0.330482 -0.762527 0.556177
0.41576648 -0.80358148 0.13605213 0.293781 -0.776536 0.557391
0.52881694 -1.02640426 -0.24085832 0.311776 -0.769047 0.557999
0.51893580 -1.02630568 -0.23499966 0.308125 -0.771110 0.557179
0.58233583 -1.10625458 -0.38345754 0.323339 -0.764109 0.558202
0.17611942 -0.32314312 0.94634843 0.251311 -0.791397 0.557256
1.04319930 -1.68654644 -1.48516870 0.436084 -0.708015 0.555468
0.59006536 -0.97577649 -0.21468639 0.422230 -0.716963 0.554694
1.22175205 -1.49508536 -1.41980934 0.521019 -0.645793 0.558114
1.15934443 -1.36651254 -1.20800471 0.524606 -0.642684 0.558342
1.00637066 -1.48364615 -1.20770788 0.459138 -0.692881 0.555975
1.45642233 -0.89806449 -1.07527876 0.692881 -0.459138 0.555975
1.30521798 -0.96492422 -0.95536745 0.653787 -0.509248 0.559669
1.17491341 -0.85369825 -0.69652158 0.651960 -0.513818 0.557619
1.01083183 -0.93597531 -0.57535362 0.604080 -0.570238 0.556701
1.06563389 -0.97208643 -0.67439157 0.606243 -0.565715 0.558960
1.14408147 -0.90051877 -0.70263684 0.636415 -0.531753 0.558762
1.38839924 -0.69297463 -0.84189039 0.740320 -0.380782 0.554014
1.39183331 -0.61428213 -0.80112928 0.751969 -0.352435 0.557074
1.47622800 -0.70431542 -0.97122163 0.745528 -0.367054 0.556291
0.75603366 -0.37740695 0.22472286 0.731897 -0.396376 0.554268
1.77195454 -0.60993487 -1.32993722 0.781723 -0.279525 0.557471
1.11162734 -0.07242180 -0.18174279 0.821218 -0.124872 0.556783
1.50205207 -0.28832260 -0.81001562 0.812738 -0.169759 0.557349
0.63066983 -0.07600373 0.53898621 0.810765 -0.179667 0.557118
1.69274354 -0.15779036 -1.07027555 0.823911 -0.096676 0.558412
1.87503505 -0.36478910 -1.38459063 0.814611 -0.159933 0.557522
1.87297153 -0.31628060 -1.37191594 0.818059 -0.140535 0.557700
