//X Y Z Nx Ny Nz
200
1.06697810 0.08345444 -1.50000000 0.000978 0.000978 -0.999999
1.55928183 0.16035590 -1.50000000 0.000978 0.000978 -0.999999
1.97048688 0.11568791 -1.50000000 0.000978 0.000978 -0.999999
1.57517445 0.85153282 -1.50000000 0.000978 0.000978 -0.999999
1.59930491 0.69041336 -1.50000000 0.000978 0.000978 -0.999999
1.00819707 0.30232632 -1.50000000 0.000978 0.000978 -0.999999
1.45132041 1.13334227 -1.50000000 0.000978 0.000978 -0.999999
0.93098617 0.89895868 -1.50000000 0.000978 0.000978 -0.999999
1.45887899 1.19853389 -1.50000000 0.000978 0.000978 -0.999999
1.09108186 1.52179527 -1.50000000 0.000978 0.000978 -0.999999
0.80992210 1.27935898 -1.50000000 0.000978 0.000978 -0.999999
0.82345057 1.03796864 -1.50000000 0.000978 0.000978 -0.999999
0.18765262 0.53681797 -1.50000000 0.000978 0.000978 -0.999999
0.62723005 1.51033235 -1.50000000 0.000978 0.000978 -0.999999
0.41474545 1.34299994 -1.50000000 0.000978 0.000978 -0.999999
0.33571440 1.75751603 -1.50000000 0.000978 0.000978 -0.999999
0.01391868 1.59848833 -1.50000000 0.000978 0.000978 -0.999999
0.09028102 0.70137358 -1.50000000 0.000978 0.000978 -0.999999
-0.28553808 1.37124658 -1.50000000 0.000978 0.000978 -0.999999
-0.16304831 1.51326418 -1.50000000 0.000978 0.000978 -0.999999
-0.22204626 1.88072276 -1.50000000 0.000978 0.000978 -0.999999
-0.14832851 0.37588692 -1.50000000 0.000978 0.000978 -0.999999
-0.84788036 1.57489073 -1.50000000 0.000978 0.000978 -0.999999
-0.09375724 0.32675439 -1.50000000 0.000978 0.000978 -0.999999
-0.90605944 1.27988529 -1.50000000 0.000978 0.000978 -0.999999
-0.37631819 0.39075318 -1.50000000 0.000978 0.000978 -0.999999
-1.07531559 1.17446530 -1.50000000 0.000978 0.000978 -0.999999
-0.42190027 0.33603364 -1.50000000 0.000978 0.000978 -0.999999
-1.17457688 1.03339696 -1.50000000 0.000978 0.000978 -0.999999
-1.38624203 1.19963884 -1.50000000 0.000978 0.000978 -0.999999
-1.52434194 0.70925248 -1.50000000 0.000978 0.000978 -0.999999
-1.74977231 0.79235208 -1.50000000 0.000978 0.000978 -0.999999
-0.69114667 0.20224726 -1.50000000 0.000978 0.000978 -0.999999
-1.77760518 0.10986626 -1.50000000 0.000978 0.000978 -0.999999
-1.19838500 0.30478701 -1.50000000 0.000978 0.000978 -0.999999
-1.96225679 0.06952573 -1.50000000 0.000978 0.000978 -0.999999
-1.13825059 -0.25750569 -1.50000000 0.000978 0.000978 -0.999999
-1.68643498 -0.07909857 -1.50000000 0.000978 0.000978 -0.999999
-1.94202662 -0.33311874 -1.50000000 0.000978 0.000978 -0.999999
-1.79666948 -0.77313268 -1.50000000 0.000978 0.000978 -0.999999
-1.49873650 -0.62663853 -1.50000000 0.000978 0.000978 -0.999999
-1.08493900 -0.42677441 -1.50000000 0.000978 0.000978 -0.999999
-1.02838612 -0.87993836 -1.50000000 0.000978 0.000978 -0.999999
-1.57450795 -1.17400932 -1.50000000 0.000978 0.000978 -0.999999
-0.52259994 -0.43279022 -1.50000000 0.000978 0.000978 -0.999999
-0.86765301 -1.06732178 -1.50000000 0.000978 0.000978 -0.999999
-1.01212239 -1.49861026 -1.50000000 0.000978 0.000978 -0.999999
-0.55440950 -1.80246055 -1.50000000 0.000978 0.000978 -0.999999
-0.30350572 -0.90537477 -1.50000000 0.000978 0.000978 -0.999999
-0.64639509 -1.40462875 -1.50000000 0.000978 0.000978 -0.999999
-0.04654349 -1.85553694 -1.50000000 0.000978 0.000978 -0.999999
-0.05534204 -1.85030937 -1.50000000 0.000978 0.000978 -0.999999
-0.22560127 -1.65668082 -1.50000000 0.000978 0.000978 -0.999999
0.15972024 -1.05844760 -1.50000000 0.000978 0.000978 -0.999999
0.30005175 -1.87886643 -1.50000000 0.000978 0.000978 -0.999999
0.07891465 -1.43399656 -1.50000000 0.000978 0.000978 -0.999999
0.46210855 -1.68681169 -1.50000000 0.000978 0.000978 -0.999999
0.27421623 -0.68500805 -1.50000000 0.000978 0.000978 -0.999999
0.62632596 -1.48750114 -1.50000000 0.000978 0.000978 -0.999999
0.82650411 -0.91064382 -1.50000000 0.000978 0.000978 -0.999999
1.13666677 -1.30591476 -1.50000000 0.000978 0.000978 -0.999999
1.06161582 -0.95769417 -1.50000000 0.000978 0.000978 -0.999999
1.36776400 -1.03878558 -1.50000000 0.000978 0.000978 -0.999999
0.17174548 -0.15091179 -1.50000000 0.000978 0.000978 -0.999999
1.67345595 -0.64921391 -1.50000000 0.000978 0.000978 -0.999999
1.79700708 -0.51896554 -1.50000000 0.000978 0.000978 -0.999999
1.45454335 -0.54854757 -1.50000000 0.000978 0.000978 -0.999999
1.67029262 -0.44572678 -1.50000000 0.000978 0.000978 -0.999999
0.96657270 -0.00542911 -1.50000000 0.000978 0.000978 -0.999999
1.53097892 -0.26473808 -1.50000000 0.000978 0.000978 -0.999999
1.61638594 0.06552290 -0.93751818 0.831486 0.029054 0.554785
1.82809329 0.14278726 -1.27033746 0.828123 0.060663 0.557255
0.91632152 0.09386818 0.10698080 0.829864 0.040447 0.556497
1.13189006 0.15071899 -0.22759891 0.828393 0.063723 0.556510
0.76279438 0.04181235 0.34755135 0.831707 0.017813 0.554928
1.25540829 0.69697917 -0.65831757 0.751969 0.352435 0.557074
1.34024620 0.59629875 -0.71861017 0.771866 0.305231 0.557725
1.70116091 0.59497517 -1.22232223 0.786191 0.269416 0.556163
1.54908299 0.86673653 -1.16709507 0.737911 0.384499 0.554660
1.17486644 0.67808217 -0.53479660 0.751969 0.352435 0.557074
1.60915971 1.11445999 -1.45791411 0.684399 0.470211 0.557225
1.30098605 1.06755519 -1.04481328 0.653787 0.509248 0.559669
1.09042048 0.89079893 -0.62927544 0.666924 0.492213 0.559410
1.14127445 1.04026425 -0.82797611 0.639558 0.528184 0.558559
0.28046191 0.27784252 0.90746284 0.697146 0.450899 0.557384
0.44114399 0.62943304 0.33818913 0.544779 0.625737 0.558272
0.65032929 0.92432624 -0.20843494 0.524606 0.642684 0.558342
0.86348528 1.48324049 -1.07562017 0.443498 0.702620 0.556448
1.04690337 1.18285894 -0.88400477 0.556453 0.613958 0.559835
0.93273193 1.40019846 -1.03972268 0.480149 0.677562 0.557106
0.87966925 0.99953419 -0.50993395 0.559938 0.610687 0.559938
0.14408922 0.35796213 0.91622424 0.396376 0.731897 0.554268
0.57403338 1.15637755 -0.44871140 0.385429 0.736415 0.556001
0.56736141 1.25563860 -0.58359337 0.363339 0.747860 0.555599
0.29546592 1.02220654 -0.09988570 0.319665 0.766233 0.557406
0.16794121 0.44788718 0.77671909 0.385429 0.736415 0.556001
0.23006102 0.91793263 0.07766891 0.210219 0.805583 0.553935
0.30642268 1.54803121 -0.88255882 0.173387 0.812659 0.556347
0.23114827 1.23333263 -0.39564574 0.176310 0.812231 0.556054
0.05425519 0.67158878 0.48190260 0.166431 0.814164 0.556271
0.19628577 1.83978570 -1.29844081 0.096676 0.823911 0.558412
-0.04629234 1.85107803 -1.28575885 -0.020630 0.832085 0.554265
-0.03768798 0.48662174 0.76262474 -0.017813 0.831707 0.554928
-0.10713698 1.42736840 -0.66220987 -0.046194 0.830084 0.555722
-0.05201060 0.41496646 0.86727929 -0.023379 0.832034 0.554231
-0.16607262 1.34143639 -0.54495031 -0.069634 0.828497 0.555647
-0.22400665 1.85204434 -1.32230306 -0.093816 0.824137 0.558566
-0.65983588 1.27445436 -0.66343415 -0.337032 0.759532 0.556345
-0.37058198 0.65651250 0.36778259 -0.290158 0.778511 0.556533
-0.51875067 1.01693559 -0.22179496 -0.308885 0.769811 0.558553
-0.49523523 1.48477185 -0.86211109 -0.254674 0.792146 0.554658
-0.45662367 0.93255651 -0.06788182 -0.293781 0.776536 0.557391
-1.03488433 1.28577185 -0.99646103 -0.502015 0.659839 0.559100
-0.04645550 0.04775059 1.39989853 -0.421229 0.718567 0.553379
-0.42949355 0.62040341 0.35975766 -0.436084 0.708015 0.555468
-0.45150346 0.55432868 0.41879547 -0.455439 0.695670 0.555535
-1.07170582 1.46304798 -1.24315882 -0.483809 0.674654 0.557468
-0.94491506 1.52885401 -1.20536864 -0.433393 0.709037 0.556270
-0.71618581 0.49005032 0.18901610 -0.632110 0.537715 0.557942
-1.24997151 1.05421126 -0.97129059 -0.625737 0.544779 0.558272
-1.17783058 0.85284543 -0.69923759 -0.651960 0.513818 0.557619
-0.41848958 0.30012214 0.72126865 -0.609530 0.562254 0.558877
-1.41087556 1.34870756 -1.43566108 -0.600758 0.573681 0.556759
-1.38448095 0.43589509 -0.68757010 -0.774540 0.297411 0.558242
-1.45779562 0.44118249 -0.79310894 -0.781172 0.283630 0.556169
-1.77620721 0.52269363 -1.28537083 -0.793175 0.247770 0.556313
-0.93001354 0.43572029 -0.05222464 -0.738837 0.381705 0.555357
-1.73471785 0.75721663 -1.36316168 -0.759532 0.337032 0.556345
-0.71312642 0.11817816 0.40697289 -0.809150 0.186727 0.557144
-0.32312965 0.01176992 1.01298141 -0.810194 0.186269 0.555778
-0.60978889 0.14706209 0.55627489 -0.805583 0.210219 0.553935
-1.15199327 0.23737982 -0.27486730 -0.809150 0.186727 0.557144
-1.81732917 0.38873628 -1.30276084 -0.811201 0.176742 0.557418
-1.66396129 -0.35631904 -1.06630731 -0.816383 -0.150191 0.557639
-1.36234367 -0.11858215 -0.56693298 -0.828982 -0.051899 0.556862
-1.26124763 -0.11636990 -0.41485214 -0.829099 -0.049101 0.556941
-1.33015823 -0.13619311 -0.52213258 -0.828261 -0.057851 0.557348
-0.52672529 -0.04262142 0.70149517 -0.830860 -0.017853 0.556195
-1.72660851 -0.40685230 -1.17025757 -0.814099 -0.170043 0.555273
-1.28271639 -0.64850807 -0.66842425 -0.762527 -0.330482 0.556177
-1.35016370 -0.54574978 -0.70320565 -0.779225 -0.287250 0.557043
-1.08999956 -0.46871787 -0.29495442 -0.781172 -0.283630 0.556169
-1.58845031 -0.64773697 -1.09532583 -0.773901 -0.301582 0.556889
-0.68904579 -0.26498938 0.38344407 -0.793175 -0.247770 0.556313
-1.78365159 -0.68158197 -1.38776922 -0.776536 -0.293781 0.557391
-1.24564219 -0.83739972 -0.76640618 -0.697146 -0.450899 0.557384
-0.90018052 -0.74944830 -0.27074361 -0.674654 -0.483809 0.557468
-0.49402761 -0.44921768 0.49328005 -0.689004 -0.465453 0.555541
-0.83950728 -0.68455815 -0.13815248 -0.681534 -0.473892 0.557618
-0.58284187 -0.53323835 0.30929136 -0.681534 -0.473892 0.557618
-1.10619938 -1.31039822 -1.09170294 -0.541252 -0.628932 0.558114
-0.32055527 -0.53165901 0.56661201 -0.541252 -0.628932 0.558114
-1.22854221 -1.40171170 -1.31398666 -0.548296 -0.622527 0.558419
-0.41321450 -0.43645203 0.59554768 -0.582768 -0.592903 0.555741
-0.93522990 -1.56393933 -1.23856139 -0.439792 -0.705327 0.555964
-0.24618530 -0.37015080 0.82896662 -0.558781 -0.612802 0.558781
-0.52493137 -1.79761243 -1.31658602 -0.244841 -0.793784 0.556740
-0.68147022 -1.67555618 -1.23661113 -0.322545 -0.765443 0.556832
-0.16002709 -0.38454413 0.86984062 -0.396376 -0.731897 0.554268
-0.45863277 -1.55883026 -0.94443631 -0.269416 -0.786191 0.556163
-0.48262024 -1.49032056 -0.86256319 -0.290875 -0.777258 0.557909
-0.48798931 -1.54074013 -0.93614703 -0.283630 -0.781172 0.556169
-0.26382673 -1.54043412 -0.86275131 -0.156636 -0.815997 0.556430
-0.12340167 -0.75086772 0.34932911 -0.186269 -0.810194 0.555778
-0.17475434 -1.31773973 -0.51111996 -0.144019 -0.818085 0.556773
-0.02156835 -1.81806755 -1.23136067 -0.026248 -0.830273 0.556739
-0.14948946 -1.14974070 -0.25413191 -0.153723 -0.816375 0.556687
-0.02445856 -0.72853720 0.40236425 -0.147282 -0.816745 0.557886
0.33610731 -1.29156899 -0.50372761 0.140535 -0.818059 0.557700
0.26846513 -1.32201970 -0.53604573 0.112365 -0.821581 0.558909
0.34884036 -1.62465250 -1.00586748 0.147282 -0.816745 0.557886
0.13410673 -0.76881862 0.32028890 0.057716 -0.829144 0.556047
0.15372847 -1.92905176 -1.42393577 0.066542 -0.828241 0.556408
0.13261798 -0.33514762 0.95475531 0.233861 -0.797605 0.556000
0.61983359 -1.47717953 -0.92363852 0.301582 -0.773901 0.556889
0.57759917 -1.48383832 -0.90849316 0.283630 -0.781172 0.556169
0.84019881 -1.58670914 -1.20432329 0.370771 -0.743175 0.556973
0.53837442 -1.56160986 -0.99449027 0.261794 -0.788518 0.556509
0.47982705 -0.71013153 0.20569897 0.436084 -0.708015 0.555468
1.03866673 -1.56643009 -1.33681858 0.455439 -0.695670 0.555535
0.66054660 -1.06844425 -0.39083004 0.428660 -0.713331 0.554445
0.22181702 -0.35828114 0.86565733 0.418506 -0.719565 0.554148
1.32479298 -1.46999371 -1.48459470 0.555297 -0.616059 0.558673
1.08854973 -0.90423524 -0.63940489 0.623678 -0.545930 0.559451
1.19152677 -1.15349555 -0.99258244 0.594070 -0.580530 0.556835
0.35986102 -0.29865980 0.79298735 0.600758 -0.573681 0.556759
1.25162554 -0.88429075 -0.81677538 0.659839 -0.502015 0.559100
0.18484771 -0.12720490 1.16096902 0.600758 -0.573681 0.556759
0.84712905 -0.54295486 -0.01688111 0.648885 -0.517423 0.557873
1.53149974 -0.59309912 -0.98408747 0.766233 -0.319665 0.557406
0.88226038 -0.23654699 0.12984061 0.763312 -0.326215 0.557619
1.67471790 -0.59311110 -1.18428147 0.776536 -0.293781 0.557391
0.95393229 -0.36705467 -0.04590178 0.751106 -0.355275 0.556435
0.88325888 -0.37051064 0.05088294 0.744633 -0.369872 0.555623
0.39382493 -0.16747761 0.85255432 0.731897 -0.396376 0.554268
1.29588342 -0.13357535 -0.47020340 0.819640 -0.130966 0.557708
1.52911937 -0.05306796 -0.80415875 0.827435 -0.072632 0.556845
0.57611537 -0.09803507 0.61646700 0.808532 -0.193378 0.555771
1.68012583 -0.40834144 -1.10082746 0.806505 -0.199720 0.556473
1.68370020 -0.31188369 -1.08714056 0.814611 -0.159933 0.557522
